260 260 264 271 274 279 283 278 260 258 294 273 281 285 292 302 311 319 341 417 444 544 727 849 921 890 916 979 1177 1322 1097 1059 810 796 950 1240 1481 1386 1451 1662 1735 1404 1429 1272 1230 1205 1212 974 971 1002 1237 1209 1074 1034 1007 920 860 1007 868 848 933 835 783 653 620 318 374 629 504 491 449 418 504 561 459 476 603 760 1027 1075 989 843 1085 968 1009 1045 1158 1286 1670 1753 1598 1608 1782 1500 1272 1108 1054 1120 1337 1477 1623 1834 1929 2082 2143 2067 1889 1685 1587 1613 1604 1619 1596 1783 1931 1891 1727 1504 1260 1305 1065 954 759 899 1086 1239 1351 1372 1447 1387 1286 1515 1781 1953 2176 2466 2631 2669 2519 2421 2392 2321 2093 1977 1949 1941 1954 1818 1702 1643 1482 1269 1224 962 910 1174 1353 1458 1671 1839 1651 1708 2048 2312 2283 2238 1994 1714 1491 1469 1455 1323 1059 730 684 754 948 1039 1168 1484 1337 1277 1399 1790 1867 2073 1860 1666 1435 1308 1276 1489 1475 1506 1256 1238 1326 1019 809 704 596 334 292 465 692 858 593 505 487 300 474 505 698 668 537 716 610 831 869 541 577 539 466 504 723 937 967 1101 1279 1573 1601 1356 1308 1147 1129 1101 921 992 807 737 867 879 743 699 710 690 619 770 992 925 987 1031 869 657 462 495 665 728 957 967 931 777 825 635 646 528 574 562 685 559 430 365 372 381 389 392 381 379 375 364 353 349 337 325 309 341 367 365 363 368 366 364 366 363 353 343 321 306 285 271
275 274 280 280 288 289 293 289 268 270 298 308 310 310 307 307 316 323 335 346 378 485 645 615 783 793 876 968 940 993 1130 963 710 1031 1176 1219 1312 1542 1647 1792 1633 1348 1180 1107 1035 993 1062 963 857 907 1153 1192 1016 866 812 897 886 831 857 836 756 622 637 508 569 547 340 461 310 321 304 363 321 389 350 370 497 757 778 932 1137 1136 1227 1150 1238 1253 1409 1532 1455 1532 1703 1707 1866 1575 1328 1406 1272 1311 1182 1435 1570 1650 1792 2146 2293 2075 1913 1883 1813 1858 1781 1911 1890 1931 2134 1989 1752 1504 1367 1074 933 807 784 937 1079 1338 1473 1628 1766 1673 1510 1594 1796 1996 2208 2461 2670 2640 2371 2292 2223 2205 2054 1757 1761 1726 1783 1699 1586 1467 1373 1177 1014 855 988 1143 1375 1609 1819 1968 2046 2113 2199 2071 2105 2114 1819 1766 1414 1269 1275 1325 1208 985 667 682 853 1006 1312 1619 1445 1629 1651 1903 2060 2047 1989 1907 1862 1743 1696 1763 1889 1714 1488 1468 1185 921 837 939 916 557 384 302 487 583 433 275 290 487 725 936 978 865 736 797 752 854 946 771 673 856 807 477 767 990 1036 1303 1347 1482 1397 1649 1492 1366 1408 1161 1231 1050 942 841 1085 977 785 695 644 637 658 858 996 934 979 1015 815 651 484 533 823 1008 1157 1179 1211 1007 994 991 736 660 778 750 692 579 482 379 398 406 410 411 402 394 380 371 360 349 338 319 329 374 383 388 389 401 391 406 408 396 386 360 338 314 292 280
274 294 296 300 303 303 304 306 278 278 292 326 335 378 346 321 357 388 388 346 357 368 451 529 603 602 654 794 968 787 847 695 768 949 960 1106 1413 1579 1812 1844 1578 1402 1422 1193 1104 984 899 959 717 801 910 1076 1102 949 707 613 719 666 721 715 534 449 438 380 271 293 265 293 414 505 559 509 461 400 556 504 412 518 612 890 985 1181 1300 1408 1374 1243 1204 1419 1238 1358 1518 1466 1753 1697 1666 1575 1528 1521 1379 1403 1489 1673 1834 2124 2349 2117 2017 1991 1924 1930 1938 1966 1996 2064 2203 2064 1865 1640 1394 1118 915 748 945 1188 1389 1405 1662 2000 1998 1898 1762 1713 1814 2000 2204 2402 2732 2479 2285 2158 2056 2016 2026 1916 1592 1591 1619 1707 1441 1286 1211 1046 861 1011 1036 1031 1233 1491 1654 1897 2169 2238 2079 1909 1852 1852 1769 1520 1479 1175 1040 1076 1050 939 643 880 1160 1448 1521 1539 1645 1810 1998 1894 1852 1772 1730 1719 1728 1761 1814 1842 1764 1770 1792 1511 1156 1114 1282 1371 1064 854 619 326 285 422 259 258 477 676 969 1197 1190 1127 959 1129 969 1068 1176 1067 908 1055 745 505 728 821 960 1268 1285 1277 1266 1441 1602 1600 1753 1528 1392 1321 1047 975 1205 1049 844 881 813 716 745 759 911 850 699 755 588 459 434 804 791 852 910 962 1158 1205 1292 1205 960 982 1014 763 578 556 502 417 429 433 439 435 427 416 401 386 373 356 334 338 388 403 411 409 428 436 432 459 455 432 490 462 353 360 301 281
288 309 312 318 327 316 319 320 288 288 300 340 370 382 414 362 409 510 593 543 522 500 432 439 434 436 483 712 761 618 617 699 852 809 986 1234 1381 1697 1839 1863 1619 1610 1393 1239 963 832 854 775 711 764 868 910 937 921 625 516 566 567 578 438 305 291 314 280 486 461 383 526 491 584 801 621 527 670 693 668 610 423 557 772 766 1070 1038 1100 1143 1044 1065 1261 1029 1232 1268 1251 1642 1800 1898 1842 1847 1740 1750 1661 1648 1850 2118 2302 2103 1989 1898 1827 1771 1736 1710 1731 1791 1880 2041 2067 1942 1662 1345 1157 924 784 1039 1196 1384 1738 1955 2049 2263 2138 2015 1997 2092 2199 2308 2515 2639 2413 2151 2022 1876 1852 1890 1889 1713 1400 1465 1606 1480 1217 1004 901 1079 1329 1455 1391 1402 1655 1745 1957 2181 2218 2092 1903 1735 1586 1535 1373 1212 1031 920 806 799 742 651 977 1221 1276 1312 1378 1498 1721 1867 1666 1664 1587 1519 1533 1572 1642 1680 1699 1595 1545 1596 1654 1468 1382 1486 1432 1338 1119 796 580 426 374 501 394 346 519 797 872 966 1352 1434 1361 1164 1189 1479 1369 1113 964 755 578 732 949 1115 1218 1076 1049 1238 1266 1408 1667 1940 1766 1672 1473 1157 1245 1136 954 911 1033 862 883 834 811 892 799 764 589 539 516 479 675 673 682 726 976 980 973 1110 1041 1071 1070 1027 773 546 522 513 445 464 468 468 463 453 436 419 401 370 349 356 389 417 437 441 550 551 473 544 539 498 501 618 481 436 478 416 357
345 283 335 338 341 349 335 334 298 297 339 419 432 436 478 419 358 524 684 648 542 477 415 566 755 714 679 526 506 552 625 653 718 1024 1229 1491 1517 1648 1841 1668 1482 1312 1393 1215 954 695 666 618 558 501 651 662 809 743 664 457 353 374 388 310 311 366 439 348 404 377 612 787 687 724 882 879 707 909 957 911 700 496 489 597 727 993 892 850 849 849 968 1017 875 938 977 1210 1534 1604 1661 1762 1878 2008 1956 1902 1948 2192 2315 2106 1991 1916 1842 1742 1560 1518 1563 1561 1623 1784 1818 1820 1778 1768 1479 1206 991 740 911 1038 1276 1625 1742 2023 2297 2513 2485 2464 2413 2539 2722 2825 2663 2419 2123 1873 1652 1594 1719 1716 1687 1532 1275 1425 1363 1213 963 990 1262 1462 1748 1861 1696 1887 2085 2246 2363 2211 2049 1854 1663 1541 1463 1487 1351 1307 1263 1108 1006 927 688 905 1022 1076 1180 1257 1480 1710 1795 1563 1437 1421 1358 1350 1391 1543 1555 1523 1426 1311 1455 1512 1527 1355 1275 1245 1304 1356 1028 923 801 903 971 643 267 564 634 770 1135 1096 1236 1231 1322 1497 1574 1478 1145 900 882 666 623 721 1022 1057 1016 1271 1515 1537 1602 1840 2105 2000 1683 1337 1422 1385 1365 1079 1183 1093 1071 914 856 1032 1002 924 673 725 677 671 523 478 519 688 817 905 762 920 1125 929 734 774 670 594 798 757 502 522 496 504 497 487 473 453 434 398 370 480 483 493 563 512 458 564 640 552 626 605 582 624 836 722 665 612 438 347
375 354 319 360 364 369 363 380 309 316 333 456 539 482 504 392 420 526 664 836 741 622 451 629 875 1011 842 803 704 878 869 649 895 1151 1296 1358 1278 1553 1809 1646 1586 1251 1080 1015 991 993 768 761 679 536 479 481 616 624 521 346 514 320 328 362 436 412 502 584 615 405 572 801 960 1027 1083 1161 1035 1202 1015 784 556 690 492 443 651 863 782 641 607 619 666 710 838 943 945 1092 1328 1382 1452 1548 1704 1857 1994 2159 2228 2344 2173 2065 1947 1844 1724 1605 1436 1317 1408 1388 1492 1575 1605 1665 1617 1579 1597 1516 1315 1038 780 1012 1213 1549 1895 2133 2352 2482 2692 2897 2865 2939 3046 2863 2702 2528 2315 2118 1789 1567 1511 1494 1459 1356 1251 1185 1231 1036 909 1105 1353 1516 1794 2079 1975 1977 2187 2396 2484 2219 2028 1801 1732 1671 1651 1678 1575 1478 1505 1427 1340 1100 837 854 946 1170 1345 1467 1699 1963 1890 1656 1408 1245 1188 1135 1310 1375 1397 1438 1246 1219 1314 1354 1369 1172 1073 1100 1223 1146 1140 1155 830 733 681 524 282 409 638 824 892 872 1016 997 1224 1280 1364 1481 1201 1096 1197 1095 849 678 910 842 1055 1273 1615 1913 2056 2136 2264 2087 1711 1528 1774 1722 1458 1201 1348 1346 1190 958 1102 1107 1057 912 678 779 862 678 687 776 613 508 615 599 757 948 1105 855 865 813 853 710 784 598 676 629 550 542 528 514 493 464 397 435 586 640 627 544 694 537 612 714 677 669 685 676 774 871 968 775 634 483 476 454
400 409 310 385 390 393 396 391 323 329 344 402 485 599 583 458 446 481 575 778 917 714 541 656 874 1180 1087 1053 834 1048 899 716 796 1055 1000 1051 1388 1655 1761 1608 1425 1245 1324 1348 1273 1019 979 1046 986 906 751 562 460 558 404 374 601 409 346 428 578 528 585 825 868 632 502 670 888 1140 1295 1430 1383 1265 1001 729 751 894 765 587 523 669 595 560 654 814 967 911 1112 1258 1188 1094 1090 1137 1231 1324 1509 1703 1865 2035 2317 2269 2129 1983 1861 1647 1524 1406 1449 1500 1437 1359 1283 1387 1323 1435 1413 1385 1384 1464 1307 1116 933 948 1166 1542 1843 2100 2268 2471 2668 2842 2908 3150 3132 2867 2654 2471 2345 2171 1908 1628 1453 1316 1244 1240 1326 1287 1081 1071 1049 1254 1545 1786 1943 2164 2311 2212 2163 2337 2485 2385 2196 2119 2024 1893 1839 1899 1755 1807 1798 1657 1424 1155 937 745 1045 1351 1662 1788 1906 2150 1982 1776 1562 1375 1134 1082 1219 1274 1297 1400 1252 1074 1166 1217 1186 1055 845 963 1041 955 851 831 629 514 339 272 321 377 520 566 698 734 875 944 969 962 1128 1358 1467 1412 1426 1242 942 739 824 838 1079 1321 1548 1756 1987 2034 2011 2005 2068 1997 1827 2018 1741 1429 1577 1508 1274 1094 1192 1340 1160 898 787 835 1028 894 816 783 668 526 691 777 753 883 1054 1039 863 1067 880 860 837 804 818 649 631 575 555 537 501 450 418 622 627 667 810 688 813 699 635 841 989 840 883 981 918 1180 1202 1018 728 716 660 711
434 451 416 365 415 438 418 363 335 363 359 367 420 465 586 676 648 680 604 722 957 795 783 546 706 1013 1279 1286 1203 1257 1091 953 750 829 1010 1248 1410 1556 1846 1669 1484 1601 1693 1668 1436 1289 1337 1347 1285 1169 1015 789 429 350 386 541 740 591 558 672 547 763 829 920 927 696 536 834 862 942 1186 1407 1559 1289 1079 953 1008 1154 962 706 468 477 653 784 833 847 1184 1107 1325 1456 1409 1483 1393 1344 1281 1447 1487 1588 1788 2017 2327 2217 2105 1904 1743 1567 1593 1733 1746 1767 1711 1556 1384 1177 1136 1107 1142 1125 1155 1255 1131 909 857 955 1196 1454 1737 2010 2260 2392 2537 2659 2746 3054 3209 3046 2808 2608 2444 2201 1993 1980 1747 1569 1598 1669 1588 1579 1414 1259 989 1274 1465 1807 1943 2060 2363 2434 2308 2258 2409 2583 2527 2477 2313 2250 2160 2162 2084 2074 1802 1512 1252 1094 980 826 1125 1441 1687 1886 2073 2190 1970 1688 1461 1279 1062 961 1066 1139 1216 1288 1204 995 1122 1011 1011 948 765 881 877 802 734 675 437 309 462 620 564 283 290 386 478 692 692 681 807 978 1137 1340 1516 1565 1455 1228 1091 1081 1207 844 997 1151 1346 1644 1689 1870 1903 2003 2069 2184 2180 2120 1922 1664 1744 1671 1358 1324 1433 1484 1273 1134 999 788 1039 1127 984 757 601 632 819 900 1001 953 1207 991 1031 1052 984 1153 1176 1154 921 723 640 603 547 510 471 640 456 536 676 587 675 904 1011 855 808 808 1142 1069 1016 1278 1298 1403 1238 942 756 1052 964 905
390 467 479 338 436 505 457 365 348 413 536 481 395 486 547 574 693 846 858 817 944 1126 983 722 744 908 1131 1172 1416 1204 1064 914 792 1002 1115 1148 1307 1512 1742 1792 1803 1924 1909 1839 1662 1660 1634 1484 1484 1445 1146 735 504 500 369 536 719 913 871 958 702 950 1103 1189 974 661 521 617 805 980 1192 1199 1492 1373 1237 1238 1256 1095 947 778 554 638 859 1084 1184 1107 1361 1385 1579 1638 1793 1770 1665 1647 1532 1622 1730 1844 1937 2029 2361 2244 2033 1845 1707 1848 1843 1984 1975 2013 1812 1660 1418 1499 1530 1443 1283 1223 1039 1012 923 951 1009 1142 1435 1681 1920 1993 2081 2212 2293 2449 2679 2979 3171 3195 2902 2807 2479 2287 2362 2075 1803 1818 1896 1949 1846 1576 1367 1160 1090 1216 1462 1637 1745 1968 2239 2561 2487 2341 2533 2607 2602 2574 2527 2441 2426 2385 2180 2062 1973 1626 1351 1159 959 980 1248 1525 1609 1731 1923 2055 1922 1772 1636 1481 1254 1043 845 951 1093 1132 1120 926 1036 856 815 763 610 734 753 673 615 476 410 637 815 978 781 574 445 268 437 546 631 637 742 897 1142 1363 1343 1392 1547 1513 1393 1450 1360 1167 1136 1117 1135 1376 1622 1709 1820 1843 1995 2067 2037 1983 2071 1968 1988 1853 1708 1572 1496 1258 1161 1042 870 989 1246 1221 908 721 601 661 802 1126 1244 1229 1341 1111 1087 1337 1363 1433 1219 1190 892 700 638 556 614 563 509 770 632 801 825 876 731 749 988 1091 1137 1089 1133 1444 1274 1565 1689 1496 1226 1182 1152 1224 960 766
404 494 509 414 450 520 485 367 361 474 609 551 496 445 491 517 585 753 955 1020 1091 1205 1111 850 740 769 911 1132 1348 1327 1198 1060 931 883 998 1171 1252 1432 1551 1476 1479 1528 1598 1580 1567 1483 1502 1319 1272 1223 1182 1052 832 626 370 549 696 998 1249 1167 925 1195 1371 1105 866 705 776 639 754 930 931 1144 1348 1502 1528 1303 1169 973 823 664 526 478 679 805 1078 1359 1425 1319 1434 1432 1651 1862 2046 1895 1789 1855 1948 2008 2110 2216 2459 2436 2169 2042 1868 1902 2100 2281 2231 2022 1752 1583 1479 1745 1683 1520 1410 1342 1102 875 1017 1104 1205 1129 1242 1477 1768 2078 2331 2389 2501 2639 2811 2839 3070 3298 3103 2818 2698 2614 2411 2167 2041 2236 2244 2228 1934 1715 1460 1400 1179 1191 1318 1630 1720 2007 2307 2622 2647 2491 2413 2392 2387 2343 2306 2221 2179 2217 2067 1806 1697 1577 1493 1244 1026 945 1256 1345 1516 1734 1944 1943 1797 1643 1539 1509 1475 1227 938 805 948 977 1024 855 927 774 618 547 475 576 595 506 418 369 536 712 986 1208 1062 987 771 556 372 363 622 779 945 1158 1278 1156 1101 1323 1317 1377 1381 1439 1510 1552 1541 1280 1221 1349 1557 1635 1645 1780 1885 1915 1881 1863 1973 1840 1771 1792 1680 1501 1219 1083 1093 973 1061 1221 1302 1037 905 690 810 657 710 923 1128 1315 1502 1232 1294 1495 1423 1239 1143 968 750 719 724 766 712 635 521 710 628 815 1076 1081 795 752 996 1155 1356 1380 1460 1551 1454 1481 1539 1517 1218 976 949 1044 1066 860
496 545 555 475 379 514 438 375 386 534 730 701 694 596 484 675 781 685 872 1007 1235 1232 942 771 962 800 952 1165 1258 1445 1472 1253 1169 1052 1000 1091 1181 1283 1426 1301 1372 1394 1368 1374 1557 1359 1329 1200 1101 940 1032 842 816 488 416 722 967 1179 1330 1362 1244 1452 1402 1215 1085 1105 1002 813 661 729 887 1133 1222 1363 1490 1184 956 796 617 577 800 586 587 924 1122 1123 1176 1076 1222 1259 1472 1718 1982 2178 2107 2213 2297 2356 2377 2514 2695 2517 2418 2265 2094 1915 2147 2372 2346 2071 1909 1870 1737 1740 1552 1375 1206 1098 985 952 1270 1442 1480 1550 1586 1676 1843 2011 2246 2560 2801 3040 3108 3107 3084 3234 3132 2984 2897 2683 2472 2334 2446 2495 2303 2123 1954 1805 1642 1465 1318 1219 1479 1689 1964 2177 2361 2594 2558 2413 2287 2249 2227 2228 2103 2066 1988 2056 1951 1903 1632 1420 1282 1279 1130 949 1142 1369 1557 1758 1960 1865 1711 1555 1423 1276 1284 1274 1119 869 733 805 970 777 751 604 442 435 576 476 470 515 584 749 794 925 1069 1235 1209 1012 800 573 296 401 589 805 963 1063 1028 1004 1105 1164 1150 1156 1211 1301 1391 1520 1574 1446 1320 1319 1506 1510 1542 1662 1754 1754 1856 2037 2017 1734 1593 1539 1567 1379 1201 1286 1405 1283 1420 1382 1141 997 785 878 724 739 736 915 1185 1436 1342 1583 1632 1661 1485 1190 1067 825 912 851 791 882 771 657 564 733 666 879 1038 1223 1030 931 927 1156 1278 1448 1646 1381 1233 1290 1355 1249 1256 871 747 873 811 823
567 584 492 423 486 466 437 386 458 679 764 927 761 587 507 698 878 901 901 942 1207 1432 1111 874 1087 933 1055 1196 1374 1570 1767 1597 1501 1336 1339 1273 1352 1449 1490 1235 1301 1353 1264 1196 1471 1306 1232 1241 909 788 743 810 554 379 571 846 960 1056 1066 1265 1583 1737 1670 1429 1282 1039 869 700 818 1037 971 966 1117 1378 1400 1135 875 742 824 970 765 540 520 856 887 920 939 927 1036 1290 1563 1765 2027 2236 2310 2162 2158 2195 2270 2481 2701 2670 2656 2523 2335 2186 2125 2402 2505 2261 2120 2055 1922 1777 1563 1280 1473 1361 1137 907 1090 1283 1547 1892 2058 2053 2141 2222 2415 2644 2849 3101 3480 3395 3405 3138 2981 2877 2855 2744 2663 2653 2689 2460 2229 2050 1899 1656 1556 1361 1212 1345 1446 1621 1946 2233 2513 2564 2492 2345 2166 2092 2048 2115 1957 1953 1856 1913 1803 1734 1748 1603 1391 1117 1016 1058 1353 1559 1694 1876 1976 1841 1728 1546 1395 1192 1013 1017 1053 987 826 670 826 646 567 477 709 887 899 743 709 948 921 977 1111 1264 1335 1229 1045 896 726 573 386 307 517 668 927 902 801 874 1026 991 980 1025 1076 1205 1351 1509 1721 1631 1479 1343 1531 1649 1715 1576 1657 1878 2020 2115 2096 1825 1642 1543 1394 1287 1415 1314 1527 1387 1206 1056 922 1009 1032 981 743 977 913 823 1040 1103 1327 1589 1640 1606 1398 1275 1081 851 1134 1185 1036 925 842 657 664 922 800 888 1178 1275 1054 1189 960 966 1074 1428 1743 1439 1166 1019 1205 1000 1100 898 636 724 610 705
543 747 579 566 451 485 544 405 460 669 791 920 824 803 783 574 816 1146 1171 1259 1388 1443 1114 1195 1359 1195 1117 1341 1495 1752 2014 1978 1860 1741 1625 1593 1730 1571 1326 1160 1114 1166 1100 1109 1367 1193 1115 1029 974 732 503 542 544 513 652 690 736 883 851 1155 1335 1536 1618 1399 1210 1000 845 848 1103 1283 1193 1193 1239 1445 1438 1080 854 831 945 777 698 564 531 676 659 815 854 1088 1162 1397 1632 1957 2178 2266 2073 1995 1955 1918 2110 2304 2387 2632 2822 2676 2568 2342 2286 2597 2667 2521 2407 2218 1989 1850 1645 1486 1682 1378 1179 931 1153 1387 1603 1819 2125 2373 2483 2623 2759 2958 3063 3154 3271 3492 3220 2942 2752 2672 2617 2549 2452 2486 2555 2461 2265 2063 1886 1645 1476 1260 1418 1676 1827 1824 1920 2164 2459 2553 2394 2281 2171 1986 1890 1914 1988 1838 1757 1767 1719 1564 1593 1524 1432 1264 993 1145 1408 1555 1699 1821 1906 1744 1676 1597 1339 1169 985 887 825 826 668 575 528 537 601 811 929 1106 1147 874 736 1025 1246 1413 1345 1482 1334 1158 941 719 601 416 382 273 607 641 750 713 683 781 841 808 894 994 1143 1187 1261 1475 1720 1822 1645 1392 1651 1850 1884 1856 1737 1783 1902 2095 2261 2023 1835 1590 1438 1563 1558 1430 1639 1405 1219 1196 1173 1348 1188 860 956 1280 1113 976 969 1050 1295 1507 1671 1563 1494 1528 1190 918 1146 1017 938 803 800 623 825 962 936 887 1237 1533 1346 1349 1120 1180 1321 1538 1780 1456 1326 1066 906 967 1088 793 536 399 442 424
609 666 741 625 575 618 579 432 460 687 683 819 1043 969 858 704 912 1088 1363 1571 1740 1518 1218 1197 1506 1359 1283 1511 1737 1944 2260 2191 2093 2024 2076 1980 1955 1653 1401 1182 1090 885 865 992 1171 1091 907 983 802 720 403 414 393 459 427 449 489 649 836 997 1272 1309 1385 1478 1430 1262 1054 872 1121 1460 1555 1472 1453 1586 1412 1231 955 976 1169 980 940 702 646 653 910 1025 1185 1324 1512 1636 1819 1936 2055 1973 1865 1854 1772 1726 1855 2034 2260 2518 2901 2893 2695 2496 2481 2728 2669 2521 2350 2159 1984 1765 1654 1721 1741 1462 1320 1055 1081 1287 1467 1761 2135 2552 2516 2403 2528 2714 2863 2951 3037 3245 3379 3001 2722 2511 2313 2332 2261 2256 2332 2315 2361 2180 1862 1663 1511 1262 1556 1763 2022 2143 2129 2249 2520 2535 2396 2236 2075 1989 1830 1753 1834 1780 1679 1650 1565 1453 1433 1408 1331 1194 1104 1104 1324 1496 1644 1796 1871 1745 1543 1476 1450 1321 1188 1024 855 685 619 796 882 901 982 1040 1134 1334 1304 1081 883 1022 1291 1435 1681 1549 1224 1083 907 749 698 585 528 287 383 438 501 554 749 714 760 912 1077 1239 1465 1563 1466 1531 1704 1935 1904 1650 1791 1993 2077 2086 1771 1926 2076 2161 2197 2225 1952 1738 1668 1611 1799 1694 1807 1664 1563 1548 1574 1328 1103 910 1080 1368 1407 1253 1204 1148 1233 1378 1504 1562 1315 1185 1051 1111 1308 1089 1017 916 661 751 894 1079 1222 1021 1177 1506 1739 1452 1227 1229 1593 1762 1559 1299 1343 1158 972 809 807 604 712 594 779 579
811 771 626 561 696 746 623 578 437 552 652 867 1049 1150 924 895 908 1214 1442 1565 1842 1610 1408 1328 1628 1608 1610 1816 1988 2161 2221 2178 2063 1980 1942 1962 1999 1754 1616 1364 1032 918 835 817 1016 1011 790 737 794 532 583 503 570 667 693 565 594 500 646 945 1059 1159 1188 1320 1556 1445 1254 1028 1067 1271 1445 1638 1749 1477 1302 1153 937 1055 1249 970 933 913 748 597 658 831 982 1158 1407 1605 1732 1823 1901 1733 1751 1759 1592 1690 1979 2284 2267 2474 2796 2990 2785 2625 2695 2823 2733 2569 2408 2145 2087 1962 2030 2038 1863 1550 1274 1068 1075 1323 1587 1855 2140 2370 2246 2322 2330 2489 2654 2788 2902 3023 3328 3101 2875 2640 2345 2109 2002 1987 2063 2022 2173 2061 1782 1577 1396 1466 1607 1879 2147 2363 2475 2589 2675 2499 2354 2240 2110 1942 1833 1709 1653 1613 1525 1512 1421 1379 1288 1278 1239 1144 983 1211 1280 1436 1526 1774 1782 1581 1465 1325 1299 1265 1215 976 792 663 766 972 1112 1115 1210 1292 1438 1462 1547 1292 1011 1062 1232 1481 1760 1553 1380 1126 909 872 906 866 643 362 290 468 743 878 863 890 904 1154 1206 1370 1462 1545 1751 1647 1884 2011 2085 1969 1811 2009 2238 2258 1964 1969 1939 2020 2151 2152 2226 2047 2014 1722 1945 1948 2073 1844 1807 1678 1602 1376 1099 1041 1353 1427 1702 1553 1458 1325 1450 1560 1824 1642 1305 1086 1162 1420 1329 1327 1050 791 746 968 924 1197 1313 1210 1125 1350 1683 1622 1584 1520 1592 1581 1307 1209 1020 1089 1077 985 743 674 491 502 846 967
902 860 724 641 645 790 737 590 472 519 699 977 1222 1279 1201 991 1041 1208 1502 1770 1989 1974 1624 1542 1738 1933 2015 2158 2230 2129 2061 1972 1831 1745 1717 1752 1825 1897 1711 1322 1121 1001 856 716 909 987 875 574 627 458 440 716 816 975 980 822 863 760 584 673 843 941 984 1172 1470 1492 1339 1162 1112 1242 1442 1663 1841 1550 1270 1036 1134 1300 1264 1283 1137 906 1084 853 701 654 857 1109 1398 1550 1627 1683 1644 1530 1626 1599 1423 1632 1846 2019 2146 2388 2682 2914 2971 2829 2792 2891 2765 2581 2426 2424 2365 2277 2270 2259 2039 1734 1467 1236 1007 1346 1662 2055 2242 2106 2307 2547 2762 2639 2657 2757 2948 3138 3221 2943 2669 2507 2378 2217 2044 2019 1819 1739 1711 1662 1615 1473 1356 1649 1849 1872 2007 2196 2446 2732 2696 2468 2302 2151 1992 1901 1915 1995 1875 1819 1720 1527 1358 1280 1186 1133 1091 1055 1125 1230 1308 1489 1572 1744 1911 1695 1455 1239 1122 1088 1067 1003 894 608 795 1033 1224 1361 1353 1471 1604 1624 1459 1249 1033 1190 1358 1543 1662 1556 1439 1228 1124 1125 1084 883 663 472 285 505 678 945 1200 1096 916 968 1089 1308 1400 1669 1936 2096 2087 2250 2258 2059 1911 2016 2157 2299 2034 2104 2063 2208 2271 2240 2195 2219 1956 1970 2048 2202 2074 1951 1878 1745 1529 1264 1068 1319 1543 1636 1758 1869 1690 1537 1567 1703 1899 1671 1343 1374 1546 1613 1476 1204 999 790 866 971 1180 1319 1590 1416 1393 1365 1748 1915 1894 1728 1561 1517 1405 1101 867 785 789 884 676 512 471 574 919 1167
1096 1080 937 790 731 881 1022 758 546 493 646 951 1165 1345 1437 1207 1260 1427 1598 1842 2061 2193 2051 1933 1958 2253 2397 2225 2100 2003 1947 1832 1642 1640 1595 1560 1600 1809 1730 1478 1321 1089 999 833 614 781 702 521 429 450 604 794 1033 1277 1322 1155 1170 1086 886 608 700 956 1147 1314 1502 1680 1520 1471 1305 1279 1521 1691 1672 1488 1321 1110 1375 1405 1467 1291 1149 1180 1236 1007 802 630 888 1131 1312 1391 1428 1480 1389 1361 1455 1397 1376 1570 1720 1836 2047 2312 2566 2673 2996 2963 2860 2991 2923 2793 2714 2743 2622 2478 2522 2394 2099 1743 1497 1300 994 1174 1581 1906 2003 2354 2614 2637 2880 3073 3140 3058 3155 3379 3474 3256 3015 2878 2645 2573 2393 2341 2134 2031 1942 1796 1795 1729 1548 1641 1940 2305 2327 2324 2410 2665 2709 2473 2276 2253 2225 2168 2153 2019 1891 1755 1602 1446 1308 1303 1395 1468 1393 1215 1291 1457 1372 1556 1720 1837 1931 1701 1493 1327 1160 952 890 803 788 599 804 1083 1324 1546 1590 1721 1874 1867 1590 1286 1251 1332 1463 1573 1488 1415 1350 1272 1247 1162 1078 894 638 421 319 510 681 907 1225 1366 1173 1116 1356 1538 1666 1799 1952 1964 2120 2198 2254 2166 2131 2023 2139 2332 2215 2244 2185 2319 2318 2265 2338 2246 2148 2166 2288 2131 1966 1810 1723 1619 1506 1382 1150 1323 1448 1563 1706 1892 1886 1782 1838 1897 1900 1681 1466 1564 1396 1262 1225 1060 955 982 1044 967 1256 1463 1667 1809 1740 1778 1885 1647 1700 1607 1432 1271 1350 1410 1200 877 715 711 495 585 567 491 726 929
1021 1245 1062 966 946 1099 1014 793 581 521 687 833 941 1215 1394 1414 1527 1708 1915 1950 2116 2251 2417 2394 2373 2271 2170 2046 1990 1885 1794 1745 1486 1414 1380 1390 1571 1625 1615 1607 1623 1449 1200 904 645 538 534 464 634 680 638 729 950 1136 1387 1495 1452 1263 1041 865 707 990 1244 1405 1449 1674 1812 1768 1590 1531 1550 1769 1826 1586 1323 1298 1453 1644 1661 1627 1488 1491 1315 1057 758 687 884 1063 1142 1204 1262 1270 1197 1233 1248 1262 1358 1476 1492 1593 1709 1891 2165 2529 2818 3017 2966 3150 3120 3065 2927 2816 2700 2655 2617 2312 2020 1712 1438 1188 1018 1451 1759 2032 2334 2517 2513 2744 2906 3060 3229 3405 3449 3591 3785 3515 3413 3193 2972 2943 2858 2667 2519 2472 2426 2181 2023 1732 1513 1756 2075 2409 2629 2545 2592 2758 2849 2608 2564 2559 2560 2355 2133 1941 1810 1696 1611 1418 1424 1624 1753 1794 1697 1451 1415 1639 1654 1743 1869 1963 2003 1749 1517 1369 1165 947 944 839 674 751 973 1250 1381 1531 1740 1947 2142 2076 1706 1479 1451 1511 1586 1489 1347 1241 1167 1115 1048 1025 925 876 658 447 296 561 697 880 1206 1503 1593 1476 1519 1674 1708 1755 1848 1796 1858 1978 2091 2149 2113 2178 2121 2261 1913 1946 2112 2204 2215 1966 2072 2287 2405 2365 2244 2063 1901 1734 1602 1512 1405 1316 1232 1280 1393 1540 1726 1849 1963 1980 2030 2106 2026 1815 1800 1801 1710 1438 1112 1212 1295 1167 1365 1074 1184 1338 1413 1567 1808 1772 1764 1590 1504 1608 1271 1091 1108 1175 1241 871 543 463 642 756 892 699 525 711
956 1095 1286 1228 1184 958 858 677 738 639 585 717 907 1116 1379 1444 1695 1937 2116 2164 2143 2360 2520 2394 2233 2124 2035 1947 1844 1739 1655 1634 1559 1272 1131 1287 1391 1472 1473 1407 1456 1403 1188 1057 922 730 441 568 768 994 995 971 1089 1352 1584 1744 1705 1562 1354 929 862 794 953 1121 1358 1572 1728 2003 1846 1763 1769 1941 2006 1715 1518 1539 1722 1845 1898 1796 1615 1429 1269 1042 820 778 748 832 941 1056 1092 1026 1043 1087 1222 1371 1514 1762 1941 1913 1883 1979 2246 2436 2732 2993 3087 3293 3303 3174 2973 2765 2656 2465 2532 2428 2227 2000 1773 1467 1179 1206 1597 1754 1986 2004 2205 2479 2665 3004 3247 3517 3786 3934 4012 3802 3478 3210 3022 2610 2683 2861 2860 2696 2525 2259 2025 1779 1566 1862 2176 2343 2499 2793 2894 2988 2999 2848 2805 2786 2553 2241 2041 1831 1652 1558 1482 1334 1444 1696 2001 2091 1852 1713 1709 1767 1923 1946 1908 1807 1849 1805 1692 1441 1157 1124 1263 1040 728 798 1041 1091 1245 1408 1664 1908 2094 2198 1921 1660 1784 1777 1502 1435 1302 1108 1020 950 887 848 803 749 572 343 369 541 765 1050 1327 1596 1703 1660 1567 1533 1541 1602 1702 1621 1617 1790 1806 1968 1952 1944 1903 2007 1799 1792 1819 2117 1973 1784 2010 2100 2208 2264 2193 2050 1917 1766 1562 1459 1521 1392 1590 1609 1705 1712 1875 2065 2011 2128 2100 2086 2075 2000 2017 1941 1695 1399 1297 1462 1574 1359 1515 1226 1181 1224 1437 1557 1709 1507 1434 1624 1361 1417 1330 1060 876 945 1132 940 490 674 909 1005 1107 882 650 625
1055 1080 1322 1388 1141 928 806 999 1030 707 590 828 1096 1231 1353 1530 1721 1825 1928 2108 2263 2484 2352 2309 2129 1915 1858 1713 1680 1606 1514 1420 1359 1217 1092 1108 1212 1283 1251 1221 1255 1255 1098 1005 829 622 459 803 852 935 1240 1348 1396 1555 1694 2011 1841 1545 1317 1073 1166 984 889 1106 1345 1503 1683 1992 2150 2003 2023 2188 2259 1980 1841 1877 2029 1966 1863 1695 1552 1407 1180 987 753 760 1033 1024 935 930 1067 1213 1282 1308 1258 1268 1424 1678 1892 2155 2281 2250 2341 2428 2663 2950 3271 3231 3171 3197 3084 2864 2690 2428 2214 2143 2116 2041 1817 1454 1167 1209 1300 1364 1563 1599 1870 2185 2674 2989 3274 3527 3635 3630 3674 3762 3579 3342 3110 2771 2433 2476 2567 2401 2346 2199 1922 1701 1711 1822 1908 2174 2406 2701 2939 3117 2859 2674 2592 2628 2566 2352 2104 1928 1869 1805 1681 1435 1646 1664 2039 2181 2034 1879 1902 2038 2029 1966 1922 1711 1631 1606 1505 1327 1370 1276 1176 978 757 989 874 1093 1279 1459 1705 1846 2020 2241 2040 1978 1957 1689 1433 1240 1212 1107 941 793 697 701 636 534 450 368 429 637 798 979 1357 1552 1479 1483 1459 1446 1490 1566 1620 1511 1557 1621 1663 1755 1781 1792 1733 1686 1605 1576 1966 1939 1796 1674 1847 1961 2165 2127 2079 2137 2020 1869 1700 1713 1846 1612 1583 1910 2079 1829 1958 2278 2111 2244 2046 1989 2033 2021 2118 1953 1721 1578 1585 1776 1555 1475 1633 1394 1230 1376 1491 1663 1478 1347 1326 1409 1333 1234 1308 1100 770 735 887 787 581 803 1017 1327 1118 872 623 706
1244 1208 1333 1348 1120 999 1040 1082 1130 822 620 685 860 1095 1246 1422 1514 1534 1816 1990 2220 2423 2224 2095 2043 1846 1652 1567 1478 1375 1298 1280 1136 1008 964 934 1034 1105 1132 1093 1086 1099 1059 947 791 511 628 825 1060 1146 1256 1438 1686 1888 2051 1973 1722 1474 1262 1177 1306 1252 996 965 1161 1448 1739 2003 2235 2430 2381 2455 2336 2228 2093 2013 1919 1802 1699 1535 1409 1262 1120 988 763 1045 1256 1271 1272 1190 1414 1532 1476 1570 1586 1420 1364 1583 1771 2055 2340 2694 2688 2850 2935 3214 3378 3319 3169 3022 3068 2842 2594 2400 2299 2048 1692 1712 1649 1480 1169 1574 1762 1689 1805 1934 1986 2398 2733 3107 3375 3504 3399 3387 3620 3687 3520 3401 3144 2942 2730 2384 2250 2113 2095 2007 1870 1704 1922 2180 2102 2141 2314 2541 2853 3098 2977 2767 2478 2392 2455 2494 2316 2202 2097 1974 1816 1493 1774 1944 1929 2161 2266 2225 2173 2191 2193 2025 1840 1771 1646 1477 1501 1518 1248 1033 908 743 868 1131 993 1078 1176 1383 1549 1761 2007 2204 2334 2175 1942 1690 1420 1083 1046 981 836 708 650 631 617 630 619 435 447 750 1026 1286 1453 1382 1268 1469 1559 1615 1588 1549 1528 1447 1395 1460 1653 1561 1563 1628 1552 1390 1515 1768 1894 1811 1691 1575 1685 1881 2046 2011 1942 2063 2204 2112 1878 2168 2179 1983 1900 1888 2123 1975 2134 2377 2346 2217 2113 2076 2272 2130 1993 1975 1970 1783 1846 1797 1722 1622 1718 1458 1383 1598 1599 1581 1257 1166 1186 1167 1155 1010 997 902 638 797 581 600 652 837 1199 1259 1118 984 896 661
1559 1623 1503 1394 1139 1194 1302 1273 1351 1051 995 766 770 911 1124 1182 1348 1568 1808 2020 2171 2313 2179 1986 1857 1767 1602 1389 1347 1177 1034 1069 917 901 867 793 836 950 969 956 953 983 961 871 694 501 642 759 1036 1333 1559 1630 1825 1971 2161 2064 1812 1596 1420 1509 1648 1491 1188 1016 1222 1525 1748 1984 2136 2398 2442 2317 2196 2096 1905 1882 1792 1675 1547 1385 1265 1172 1025 833 911 1140 1424 1573 1594 1553 1547 1615 1752 1818 1838 1788 1652 1655 1665 1915 2388 2520 2715 2998 3182 3146 3107 3139 3043 2856 3008 2833 2673 2511 2195 2037 1827 1463 1353 1143 1202 1605 2026 2188 2341 2392 2320 2531 2684 3000 3276 3230 3253 3479 3628 3682 3492 3331 3170 3045 2804 2474 2193 2235 2083 1928 1937 2023 1900 2075 2313 2424 2524 2643 2876 2911 2727 2720 2502 2310 2264 2368 2484 2336 2098 1895 1759 1563 1834 2086 2259 2293 2243 2127 2079 2048 1891 1854 1762 1628 1616 1645 1683 1521 1182 939 745 898 1015 1313 1242 1072 1231 1365 1603 1831 1957 2108 2283 2188 1957 1713 1516 1205 998 850 876 946 850 697 660 813 734 487 390 704 1060 1323 1300 1228 1215 1369 1541 1636 1552 1527 1459 1343 1284 1400 1479 1425 1321 1436 1371 1305 1604 1660 1693 1692 1581 1482 1701 1854 1858 1804 1858 2120 2187 2345 2095 2233 2015 2011 2026 2165 2152 2068 2151 2329 2242 2123 2134 2188 2364 2268 2058 2034 1951 1928 1832 1916 1860 1839 1752 1616 1543 1669 1776 1396 1400 1172 957 920 950 948 757 677 639 933 743 942 939 1000 1235 1194 880 730 702 800
1564 1761 1865 1553 1396 1408 1596 1416 1222 1007 930 1011 1079 1041 960 1078 1365 1605 1776 1935 2077 2302 2333 2231 2014 1811 1675 1508 1338 1289 1277 1211 1265 1265 1177 922 818 729 755 794 759 848 852 771 550 547 816 1058 1276 1397 1649 1891 2055 2103 2250 2104 1878 1747 1789 1844 1853 1592 1285 1073 1237 1436 1651 1883 2097 2281 2371 2237 2112 2015 1893 1768 1633 1516 1429 1276 1129 985 881 905 1149 1350 1563 1704 1891 1838 1837 1883 1898 1985 2160 2066 1852 1937 1964 2045 2276 2523 2840 3152 3166 3082 2941 2866 2877 2723 2854 2607 2623 2395 2065 1808 1667 1468 1186 1532 1694 1840 2193 2452 2731 2740 2836 2911 2991 3153 3011 3062 3223 3361 3576 3643 3424 3196 3033 2792 2674 2381 2404 2376 2226 2227 2199 2052 2158 2309 2408 2586 2731 2890 3043 2889 2669 2498 2518 2346 2117 2202 2342 2230 2057 1883 1698 1605 1828 2011 2196 2392 2170 1956 1859 1815 1747 1701 1661 1711 1809 1793 1664 1575 1323 1029 799 1089 1265 1512 1307 1176 1350 1529 1632 1788 1982 2124 2259 2088 1948 1826 1637 1447 1251 1080 1203 1146 1020 800 968 957 716 518 315 680 950 1191 1143 1055 1040 1201 1408 1507 1528 1466 1360 1257 1164 1274 1350 1284 1171 1312 1197 1379 1478 1439 1550 1553 1435 1425 1501 1616 1680 1713 1868 2064 2359 2327 2075 1935 2038 1900 1867 2018 2019 1950 1988 2071 2113 2237 2092 2066 2354 2232 2088 2192 2143 1879 1686 1754 1909 1864 1899 1904 1906 1996 1832 1777 1558 1350 1197 1007 838 756 719 743 952 1221 979 1082 1197 1293 1345 1111 905 858 942 957
1533 1779 1955 1902 1738 1781 1710 1526 1236 1231 1066 1338 1480 1421 1296 1147 1273 1398 1618 1841 1993 2268 2511 2314 2062 1984 2065 1934 1733 1669 1660 1457 1478 1501 1258 1142 980 807 805 699 621 569 671 612 529 745 958 1190 1347 1530 1747 1956 2140 2340 2461 2332 2289 2206 2223 2155 1920 1658 1524 1302 1171 1460 1656 1824 1999 2203 2322 2236 2201 2152 2254 2073 1930 1779 1696 1580 1422 1209 976 1011 1037 1205 1406 1527 1632 1792 1877 2104 2153 2216 2388 2338 2218 2213 2382 2244 2342 2537 2852 3239 3164 3044 2951 2904 2791 2644 2689 2379 2205 2122 2009 1958 1642 1305 1423 1813 2070 2346 2517 2677 2815 3059 3092 3217 3241 2989 2781 3011 3172 3326 3600 3621 3413 3205 3058 2873 2648 2564 2640 2509 2486 2483 2390 2257 2224 2493 2626 2734 2968 3045 2939 2810 2611 2470 2307 2390 2115 2016 2137 2091 1994 1774 1619 1759 1850 2125 2322 2374 2128 2125 1978 1849 1851 1802 1867 1899 1882 1669 1523 1369 1329 1092 809 1173 1313 1559 1391 1351 1565 1743 1747 1850 2064 2282 2426 2291 2077 1868 1731 1586 1319 1410 1488 1364 1089 1111 1138 1046 729 482 324 629 918 993 941 917 910 1110 1239 1382 1467 1428 1316 1208 1083 1142 1157 1193 1069 1078 1147 1244 1237 1312 1407 1378 1338 1513 1661 1619 1592 1790 1989 2103 2149 2218 2067 1885 1761 1681 1698 1712 1907 1759 1824 1827 2083 2040 1881 1966 2131 2031 2235 2307 2340 2078 1841 1611 1649 1725 1842 1845 1886 1852 1865 1777 1497 1310 1051 959 894 852 1010 718 1144 1420 1356 1278 1417 1515 1408 1199 890 1085 1271 1258
1414 1717 1968 2131 2177 2012 1790 1467 1406 1547 1415 1340 1413 1669 1698 1450 1515 1689 1594 1696 1903 2224 2557 2603 2462 2288 2152 2014 1887 1831 1869 1787 1771 1718 1480 1323 1143 1200 1290 1221 1032 845 548 492 726 935 1123 1262 1438 1615 1749 1928 2170 2306 2403 2456 2510 2571 2467 2288 2153 1940 1715 1576 1407 1307 1470 1725 1909 2135 2396 2533 2497 2459 2268 2087 1969 1830 1677 1478 1295 1124 924 1116 1299 1254 1315 1371 1396 1508 1705 1906 2195 2366 2406 2409 2446 2565 2567 2587 2794 2822 3112 3164 3175 3095 2996 2896 2831 2716 2613 2381 2057 1815 1732 1642 1529 1390 1303 1475 1904 2095 2252 2397 2766 2994 2926 3059 3035 2789 2815 3121 3193 3444 3717 3646 3435 3256 3100 2958 2776 2974 2916 2753 2695 2701 2598 2460 2455 2591 2778 2909 3066 2931 2738 2605 2604 2440 2278 2145 2006 1880 1936 1859 1751 1696 1785 1953 2050 2143 2228 2354 2216 2091 2034 1993 1981 1986 1925 1882 1808 1590 1426 1209 1137 1068 808 1024 1199 1445 1611 1492 1653 1867 2006 2080 2203 2370 2308 2192 2106 1960 1716 1582 1523 1667 1661 1483 1340 1214 1111 931 884 533 321 672 742 822 731 680 838 903 1115 1318 1413 1446 1408 1340 1153 953 983 990 960 1001 1026 1111 1104 1165 1288 1259 1381 1612 1762 1986 1861 1784 2040 2198 2347 2303 2097 2046 2061 1941 1768 1576 1702 1631 1697 1935 1938 1907 1739 1802 2036 1905 2027 1983 2047 2064 2019 1898 1701 1526 1666 1677 1685 1672 1662 1443 1362 1164 836 942 1049 1201 1286 986 814 967 1187 1504 1605 1578 1393 1227 1009 1184 1449 1545
1707 1720 1971 2249 2245 1958 1759 1688 1824 1879 1768 1571 1435 1638 1895 1875 1669 1817 1936 2065 2175 2297 2630 2697 2363 2110 1876 1867 1734 1656 1724 1755 1765 1799 1769 1610 1541 1520 1415 1220 975 794 602 605 716 856 1029 1220 1388 1536 1686 1824 2070 2175 2235 2300 2350 2432 2552 2452 2268 2040 1897 1868 1621 1590 1685 1780 2045 2219 2424 2713 2585 2444 2273 2123 1951 1782 1605 1472 1286 1087 1030 1207 1470 1530 1582 1639 1765 1686 1669 1732 1997 2100 2119 2112 2221 2391 2523 2698 2909 3126 3363 3273 3327 3194 3020 2981 2858 2896 2858 2570 2322 2201 2020 1727 1632 1762 1669 1374 1612 1947 2075 2455 2713 2704 2622 2775 2801 2582 2804 3092 3357 3571 3747 3641 3484 3371 3223 3152 3165 3302 3196 2987 2915 2816 2723 2646 2679 2785 2903 3095 3122 2882 2648 2453 2349 2282 2102 2093 2014 2012 1922 1940 1932 1865 1920 2096 2204 2287 2304 2414 2285 2222 2177 2113 1980 1811 1697 1673 1642 1458 1384 1196 1049 845 807 1008 1245 1447 1647 1668 1600 1728 1867 2045 2129 2239 2295 2102 1938 1801 1726 1793 1740 1777 1623 1435 1314 1061 842 825 743 696 381 542 583 655 525 620 707 887 1073 1274 1409 1330 1229 1124 1032 935 887 998 1068 1220 1290 1308 1329 1274 1361 1468 1559 1644 1866 2113 2131 1873 1979 2027 2194 2422 2356 2365 2212 2014 1891 1571 1476 1543 1725 1859 1657 1802 1584 1760 2026 1911 1751 1736 1810 1827 1762 1844 1720 1424 1477 1527 1549 1521 1501 1441 1173 961 952 1164 1408 1579 1427 1226 1075 909 1138 1311 1480 1764 1567 1290 1115 1423 1630 1752
1793 2035 2175 2373 2408 2132 2088 2094 2122 2166 1920 1911 1641 1688 1901 2179 2154 2152 2234 2386 2501 2577 2763 2687 2466 2181 2092 1822 1641 1522 1538 1546 1592 1633 1686 1730 1603 1450 1318 1134 883 609 616 800 568 717 941 1132 1298 1428 1576 1797 1982 2049 2099 2176 2253 2325 2472 2542 2496 2348 2087 2034 1811 1871 2059 2110 2348 2584 2756 2684 2541 2407 2283 2115 1932 1756 1571 1442 1327 1090 979 1234 1474 1667 1867 1951 2019 1990 2036 2056 1937 2059 2062 2155 2352 2368 2569 2555 2866 2956 3273 3394 3291 3159 3065 3001 3042 3116 2912 2761 2698 2573 2329 2073 1865 1771 1650 1408 1684 2067 2058 2298 2470 2635 2381 2406 2461 2574 2893 3100 3310 3493 3493 3567 3640 3565 3492 3524 3575 3536 3371 3187 3063 2964 2901 2887 2908 3004 3079 3191 3013 2766 2531 2556 2326 2350 2333 2244 2187 2147 2001 2138 2017 2044 2096 2229 2358 2423 2456 2477 2332 2128 1974 1771 1668 1599 1528 1501 1489 1329 1099 1047 892 831 955 1135 1321 1566 1739 1927 1775 1770 1903 1947 2103 2264 2282 2114 2049 2026 1779 2013 1891 1637 1514 1304 1156 1050 804 649 562 468 390 389 384 481 643 517 699 871 1034 1166 1142 1146 1074 986 913 819 971 1156 1305 1414 1531 1568 1540 1434 1578 1628 1764 1790 2003 2095 2255 2137 2294 2312 2289 2462 2281 2014 1931 1803 1671 1756 1640 1476 1477 1563 1633 1643 1499 1589 1899 1705 1655 1543 1788 1541 1741 1604 1890 1679 1383 1336 1403 1399 1345 1327 1198 993 1016 1199 1432 1742 1629 1414 1219 937 1182 1330 1509 1821 1562 1294 1207 1440 1718 1746
1785 1957 2224 2416 2528 2507 2438 2369 2320 2101 2172 2277 1966 1873 2055 2301 2362 2490 2634 2750 2825 2955 2994 2918 2774 2427 2242 1991 1763 1539 1341 1366 1360 1474 1497 1570 1474 1295 1117 991 674 568 882 940 680 696 898 1043 1173 1274 1534 1753 1893 1950 2015 2059 2109 2251 2390 2625 2682 2528 2359 2281 2125 2181 2256 2399 2653 2810 2774 2659 2475 2391 2227 2082 1894 1696 1516 1377 1226 1096 969 1211 1423 1576 1688 1839 1958 2061 2256 2293 2363 2353 2164 2478 2488 2538 2715 2773 2767 2954 3236 3240 3187 3142 3142 3038 2890 2879 2772 2693 2575 2307 2113 1817 1685 1519 1334 1521 1872 2191 2152 2103 2212 2242 2282 2399 2707 2739 2688 2968 3238 3149 3379 3595 3784 3818 3791 3618 3692 3660 3506 3339 3162 3066 3035 3094 3111 3199 3308 3237 2960 2835 2792 2529 2493 2530 2509 2371 2375 2163 2254 2283 2077 2197 2271 2339 2428 2398 2521 2426 2147 1996 1959 1864 1762 1702 1694 1693 1644 1477 1212 993 870 1081 1138 1310 1385 1567 1816 2104 1985 1833 1983 2141 2253 2357 2356 2235 2152 2023 1973 2066 1818 1521 1418 1233 1316 1181 1011 818 789 799 474 420 599 561 697 619 713 888 860 864 838 917 866 816 796 909 959 1027 1234 1486 1794 1773 1804 1767 1882 1981 2012 1950 2278 2315 2391 2468 2497 2512 2402 2605 2229 2020 2012 1900 1827 1606 1653 1635 1539 1363 1314 1364 1436 1604 1804 1696 1482 1506 1565 1424 1527 1479 1657 1622 1498 1315 1202 1222 1188 1186 1092 976 1159 1317 1456 1645 1714 1457 1163 1140 1381 1650 1823 1913 1841 1647 1382 1465 1545 1680
1991 2119 2252 2343 2448 2511 2652 2575 2455 2327 2477 2344 2190 2143 2356 2458 2586 2623 2656 2835 2956 2972 2787 2668 2557 2609 2460 2250 1939 1620 1430 1338 1138 1288 1320 1367 1243 1107 907 772 564 806 1109 1083 871 639 839 969 1146 1258 1515 1723 1770 1843 1912 1944 2011 2075 2271 2489 2761 2723 2652 2511 2474 2400 2508 2677 2890 2801 2682 2570 2375 2308 2124 1968 1846 1708 1511 1344 1181 1064 1053 1124 1219 1423 1562 1677 1804 1920 2097 2351 2558 2436 2365 2479 2783 2759 3075 3052 3115 3166 3159 3076 2985 2834 2912 2853 2551 2595 2393 2300 2308 2077 1873 1708 1637 1437 1613 1870 2178 2395 2357 2261 2362 2465 2577 2618 2710 2931 2928 2910 2983 3111 3315 3549 3627 3756 3779 3481 3380 3437 3476 3350 3320 3269 3314 3319 3319 3333 3418 3388 3198 3099 2856 2690 2671 2715 2664 2633 2437 2352 2424 2323 2305 2338 2418 2497 2373 2249 2345 2383 2317 2198 2098 2001 1922 1873 1760 1583 1419 1332 1148 1042 1063 1147 1286 1480 1452 1625 1822 2109 2132 2037 2017 2056 2207 2398 2366 2234 2215 2188 2209 2110 1896 1588 1409 1370 1369 1179 1221 1090 1087 878 600 385 736 898 874 754 579 690 636 709 687 717 832 929 891 1043 1159 1231 1446 1554 1813 1974 1930 1908 2121 2185 2329 2268 2393 2287 2370 2248 2191 2459 2685 2465 2317 2375 2117 1894 1789 1698 1854 1887 1763 1612 1494 1287 1382 1486 1653 1589 1381 1366 1444 1443 1474 1316 1560 1539 1335 1490 1359 1325 1182 1021 1150 1322 1180 1315 1419 1656 1623 1363 1137 1236 1453 1506 1542 1716 1865 1733 1548 1394 1448 1629
1846 1955 2076 2201 2288 2365 2446 2509 2610 2672 2473 2392 2481 2433 2402 2619 2751 2917 2970 3003 2975 2819 2801 2430 2288 2384 2402 2174 2113 1904 1770 1456 1231 1008 1085 1115 1046 957 801 541 714 935 1159 1275 1094 859 716 900 1057 1202 1465 1625 1622 1690 1721 1780 1979 2033 2283 2521 2778 3024 2933 2843 2792 2754 2848 2951 2895 2763 2616 2486 2324 2130 2046 1918 1726 1646 1485 1358 1206 1019 1167 1339 1154 1265 1448 1550 1650 1811 2022 2169 2375 2608 2711 2653 2741 2982 3189 3379 3266 3205 3137 2944 2737 2614 2698 2796 2439 2207 2161 2008 1897 1827 1618 1493 1406 1493 1833 2108 2401 2542 2507 2356 2522 2674 2829 2872 2959 3031 3119 3116 3196 3157 3212 3353 3478 3700 3701 3511 3280 3079 3203 3128 3185 3157 3318 3191 3107 2987 3104 3187 3363 3230 3021 2879 2851 2893 2872 2754 2539 2564 2643 2506 2499 2531 2610 2598 2455 2284 2125 2216 2101 2255 2143 2047 1939 1903 1615 1381 1210 1101 977 967 1249 1395 1356 1417 1472 1687 1926 2173 2321 2118 2175 2288 2275 2296 2195 2130 1987 2177 2072 2144 2020 1727 1365 1296 1300 1305 1197 1146 991 761 445 566 855 1048 1122 956 895 878 1021 983 961 983 1096 1100 1129 1212 1417 1436 1597 1860 1883 1814 1765 1875 2149 2235 2124 2218 2165 1978 2154 1984 2252 2463 2589 2690 2504 2268 2146 2073 1916 2008 2114 1925 1863 1701 1662 1422 1237 1449 1659 1456 1348 1226 1256 1299 1280 1201 1385 1292 1231 1306 1186 1225 1133 1302 1474 1644 1567 1612 1849 1746 1541 1350 1150 1196 1278 1316 1442 1517 1715 1668 1518 1459 1342 1542
1746 1860 1963 2068 2167 2213 2266 2312 2465 2641 2498 2707 2604 2706 2563 2699 2904 3046 3012 3053 2774 2632 2747 2449 2107 2135 2253 2018 1845 1966 1818 1675 1477 1245 977 863 865 704 597 739 855 1102 1308 1511 1358 1158 847 813 987 1165 1409 1409 1410 1508 1702 1938 1998 2230 2437 2532 2821 3042 3064 3143 3135 3105 3011 2897 2831 2695 2574 2470 2262 2107 1968 1836 1674 1504 1462 1314 1122 1207 1315 1453 1345 1229 1313 1387 1560 1783 1842 1937 2137 2401 2731 3039 3076 3127 3183 3333 3210 3125 3064 2829 2631 2394 2409 2530 2493 2101 1980 1715 1620 1537 1408 1430 1481 1766 2141 2410 2708 2755 2626 2535 2652 2830 2933 3067 3146 3225 3329 3325 3325 3343 3426 3379 3438 3581 3598 3442 3316 3154 2950 2855 2983 3010 3077 3051 2884 2781 2823 2949 3052 3296 3196 3062 3048 3054 3049 2895 2847 2836 2831 2775 2696 2721 2662 2497 2317 2261 2166 2021 1911 1969 1962 1817 1658 1659 1564 1330 1149 948 1137 1324 1185 1187 1357 1498 1709 1715 1832 2036 2381 2290 2237 2063 2045 2051 1979 2015 1835 1982 1908 1972 1816 1564 1234 1100 1218 1256 1143 939 819 688 504 459 857 1061 1246 1202 1054 1179 1220 1281 1188 1186 1262 1389 1422 1368 1551 1692 1899 1972 1778 1627 1762 1875 1997 2061 1874 1890 1867 1803 1966 1953 2290 2483 2645 2695 2579 2480 2435 2222 2278 2116 1876 1838 1653 1812 1579 1425 1304 1213 1298 1284 1209 1165 1150 1161 1163 1112 1092 1098 1129 1101 1088 1151 1128 1212 1420 1625 1906 1768 1650 1630 1500 1421 1299 1143 1251 1406 1381 1425 1595 1655 1658 1455 1357 1428
1655 1738 1841 1931 1983 2027 2006 2143 2317 2557 2689 2861 2968 2973 2867 2949 3115 3051 2936 3007 2735 2539 2477 2394 2274 1868 1975 1993 1669 1806 1937 1778 1686 1477 1156 900 659 757 932 1062 1173 1311 1525 1705 1574 1316 1044 780 999 1040 1140 1519 1687 1780 1770 1767 1760 1997 2303 2602 2746 2872 2922 3034 3032 2985 2870 2775 2709 2584 2523 2440 2227 2082 1931 1744 1620 1472 1360 1124 1189 1341 1538 1608 1576 1516 1380 1430 1638 1725 1899 2225 2414 2496 2651 2975 2995 2950 3145 3163 3092 3037 2908 2800 2665 2430 2157 2153 2396 2094 1809 1645 1437 1413 1591 1651 1616 2102 2275 2511 2772 2987 2837 2754 2792 2938 3036 3229 3310 3399 3444 3527 3468 3498 3580 3564 3521 3466 3591 3545 3384 3117 3000 2839 2760 2669 2867 3003 2856 2692 2580 2773 3031 3241 3122 2982 3000 2991 2950 2842 2808 2940 2827 2585 2485 2618 2635 2539 2333 2123 1921 2017 1853 1567 1680 1574 1449 1414 1478 1361 1238 1021 1373 1506 1466 1406 1454 1711 1817 1992 2131 2254 2524 2438 2220 2014 1828 1864 1848 1812 1702 1755 1740 1876 1856 1559 1145 968 1103 1078 924 936 666 433 356 461 949 1191 1420 1335 1285 1312 1364 1352 1348 1424 1530 1543 1440 1385 1421 1670 1591 1818 1642 1482 1597 1566 1818 1923 1733 1707 1724 1711 1784 1881 2044 2414 2494 2550 2525 2335 2423 2402 2240 2020 1783 1585 1500 1530 1363 1359 1264 1240 1220 1201 1247 1281 1505 1494 1293 1333 1294 1405 1179 1482 1220 1469 1342 1113 1224 1441 1674 1621 1476 1488 1387 1253 1209 1133 1310 1446 1391 1530 1778 1895 1608 1574 1501 1360
1562 1628 1700 1801 1861 1865 1823 1975 2190 2495 2796 2880 3095 3284 3281 3110 3017 2969 2803 2844 2733 2526 2227 2059 2083 1953 1720 1798 1463 1632 1737 1913 1675 1358 1065 918 706 903 1028 1312 1580 1732 2011 1840 1582 1320 1129 755 910 1270 1446 1595 1622 1580 1557 1552 1764 2038 2358 2315 2527 2641 2765 2899 2952 2852 2694 2650 2544 2457 2391 2327 2155 1979 1846 1709 1555 1388 1197 1324 1498 1585 1575 1786 1860 1674 1536 1402 1737 1948 1955 1997 2166 2308 2619 2881 2911 2803 2838 2976 2898 2927 2905 2722 2564 2497 2264 1967 2164 1965 1763 1530 1559 1732 1792 1867 1723 1994 2329 2620 2795 3100 3077 3028 3022 3103 3134 3240 3448 3538 3600 3650 3639 3628 3711 3718 3680 3526 3569 3592 3395 3318 3127 2933 2784 2593 2533 2778 2825 2489 2636 3002 3056 3100 2918 2698 2734 2717 2716 2613 2544 2641 2823 2638 2388 2396 2452 2400 2134 1994 1758 1542 1536 1350 1398 1310 1198 1200 1318 1194 1010 1273 1417 1630 1765 1644 1564 1883 1889 1932 2248 2357 2530 2321 2128 2007 1826 1702 1688 1630 1680 1600 1602 1681 1761 1591 1201 918 814 950 951 831 610 370 594 819 1089 1265 1463 1394 1367 1263 1173 1157 1164 1222 1460 1443 1311 1204 1430 1510 1371 1559 1468 1421 1436 1414 1774 1778 1562 1518 1586 1725 1942 2211 2353 2419 2262 2372 2293 2205 2392 2275 2036 1896 1791 1759 1558 1453 1508 1457 1333 1423 1411 1256 1513 1626 1684 1606 1644 1578 1327 1299 1307 1577 1513 1493 1379 1129 1453 1612 1810 1737 1545 1346 1354 1169 1169 1252 1235 1411 1510 1711 1681 1897 1682 1730 1626 1478
1432 1462 1582 1634 1630 1619 1792 1994 2196 2422 2609 2801 3083 3315 3359 3258 3138 2995 2870 2797 2688 2583 2377 2069 1818 1657 1540 1472 1313 1442 1494 1824 1731 1404 1091 819 706 939 1116 1325 1503 1777 2088 1832 1575 1296 1128 804 1006 1205 1310 1412 1422 1342 1479 1700 1951 2061 2109 2073 2286 2559 2692 2806 2823 2650 2591 2491 2314 2265 2236 2163 2054 1928 1786 1605 1364 1374 1462 1602 1739 1822 1877 2057 2071 1877 1609 1435 1541 1577 1656 1762 1964 2257 2461 2636 2833 2765 2680 2731 2743 2662 2606 2581 2419 2461 2333 2057 1890 1846 1618 1599 1764 1928 1995 2101 1895 1996 2199 2466 2706 2822 2955 3220 3259 3301 3333 3411 3488 3668 3763 3800 3844 3798 3914 3879 3734 3674 3779 3736 3663 3417 3300 3108 2908 2622 2459 2502 2566 2331 2653 2860 2819 2801 2845 2653 2468 2553 2608 2441 2285 2342 2484 2550 2306 2273 2307 2226 2072 1799 1534 1318 1248 1366 1247 1232 1273 1140 1110 1079 1320 1400 1542 1815 1904 1725 1698 1939 2166 2027 2241 2410 2507 2262 2070 2013 2008 1822 1691 1524 1462 1579 1508 1606 1695 1625 1322 1098 819 743 861 588 433 462 557 805 1065 1346 1342 1247 1138 1140 1011 942 956 1108 1334 1396 1216 1102 1277 1329 1219 1289 1238 1199 1210 1527 1720 1651 1466 1333 1521 1838 2047 2122 2143 2136 2105 2261 2072 2232 2446 2535 2177 1900 1945 2038 1849 1573 1532 1698 1481 1499 1254 1312 1458 1540 1827 1688 1575 1351 1348 1510 1579 1549 1648 1576 1338 1144 1289 1437 1751 1810 1581 1442 1259 1160 1253 1344 1589 1557 1747 1786 2060 2028 1902 1935 1896 1651
1214 1258 1362 1361 1442 1636 1676 1876 1984 2173 2402 2776 3048 3382 3423 3279 3183 3130 3143 3026 2974 2768 2538 2384 2210 2052 1845 1711 1509 1223 1493 1699 1555 1376 1100 756 713 873 1082 1302 1568 1923 2147 1923 1659 1418 1216 1020 838 1031 1173 1228 1201 1473 1571 1676 1805 1860 1888 1924 2237 2392 2566 2702 2788 2608 2367 2363 2230 2053 2124 2002 1874 1788 1687 1562 1278 1463 1764 1961 2134 1968 2186 2347 2204 2071 1901 1757 1501 1759 1986 1963 1971 2054 2265 2530 2908 2865 2765 2625 2531 2495 2482 2393 2175 2140 2027 1943 1683 1709 1825 1835 1941 2087 2238 2361 2191 2046 2023 2183 2400 2488 2774 3128 3429 3505 3581 3642 3724 3809 3921 3911 3968 3963 4038 3895 3805 3755 3881 3848 3729 3584 3336 3159 2903 2787 2484 2365 2201 2194 2457 2597 2674 2568 2780 2627 2431 2537 2512 2386 2185 2099 2222 2304 2310 2158 2069 1979 1945 1643 1475 1286 1596 1703 1610 1526 1524 1438 1272 1110 1413 1608 1861 2021 1970 1788 1773 1959 2177 2248 2237 2353 2529 2330 2321 2075 1882 1827 1805 1622 1476 1430 1547 1443 1428 1450 1387 1155 906 676 657 570 756 642 375 678 948 1067 1218 1126 1037 1026 962 775 927 1092 1223 1302 1257 1084 1035 1068 1029 1034 1114 1001 1133 1447 1487 1372 1376 1248 1426 1588 1921 1876 1853 1820 1968 1981 2008 2144 2304 2467 2189 2027 2140 1907 1682 1518 1682 1796 1677 1479 1265 1527 1552 1842 1816 1581 1451 1582 1494 1538 1765 1709 1614 1448 1397 1221 1325 1569 1643 2031 1684 1438 1349 1154 1302 1448 1658 1955 2054 2041 2065 2254 2164 2005 1880 1597
1254 1358 1395 1494 1694 1865 1926 1929 2195 2398 2536 2886 3165 3299 3364 3369 3275 3195 3096 3116 3034 2916 2777 2556 2341 2203 2054 1855 1653 1213 1235 1528 1431 1055 955 711 894 1239 1440 1550 1760 2058 1980 1798 1738 1616 1484 1267 1020 850 996 1185 1370 1337 1392 1585 1605 1575 1615 1881 2015 2139 2425 2690 2739 2528 2291 2124 2138 1992 1916 1763 1635 1544 1507 1378 1322 1468 1771 2105 2349 2184 2239 2434 2259 2159 1946 1776 1562 1808 2088 2262 2345 2375 2425 2686 2925 2854 2815 2731 2739 2752 2674 2438 2246 2135 1926 1770 1934 2119 2148 2147 2238 2339 2492 2393 2245 2068 2208 2244 2135 2480 2794 3052 3402 3544 3712 3814 3870 3964 4086 4069 4092 4098 4024 3980 3853 3885 3945 3861 3640 3397 3185 3083 2975 2832 2653 2522 2332 2077 2303 2541 2382 2489 2734 2584 2352 2343 2470 2285 2094 1953 2047 1982 2054 2030 2017 1912 1643 1536 1325 1440 1735 1755 1641 1488 1387 1236 1264 1416 1541 1877 2098 2232 2047 1930 1783 1804 2037 2241 2398 2434 2529 2559 2307 2198 2157 2124 1923 1769 1518 1353 1363 1222 1161 1132 1214 1013 837 609 693 714 830 646 463 507 628 775 892 939 854 827 812 703 855 913 992 1073 1097 1026 916 845 851 829 796 898 1058 1158 1260 1164 1244 1304 1513 1657 1757 1794 1610 1644 1717 1929 2140 2208 2448 2443 2295 2243 2264 1992 1808 1740 2015 1861 1604 1499 1309 1576 1938 1906 1750 1583 1586 1813 1732 1814 1855 1757 1535 1393 1347 1260 1298 1417 1658 1944 1837 1613 1385 1171 1470 1476 1462 1686 1839 2198 2351 2182 1953 1841 1578 1583
1648 1610 1667 1775 1860 2100 2229 2203 2318 2550 2767 3028 3044 3069 3210 3249 3194 3031 2857 2923 2942 2696 2569 2398 2067 1881 1825 1763 1588 1332 1058 1239 1389 1060 744 843 1024 1258 1559 1881 2018 2159 1872 1668 1478 1342 1217 1193 941 959 941 992 1083 1171 1326 1383 1387 1430 1511 1700 1995 2261 2495 2767 2751 2544 2378 2164 1916 1788 1680 1678 1673 1618 1618 1445 1548 1784 1942 2090 2436 2339 2322 2470 2291 2116 1916 1768 1641 1952 2181 2421 2537 2626 2732 2936 3004 2998 2911 2946 2868 2737 2596 2483 2338 2042 1793 2083 2187 2254 2395 2529 2538 2661 2627 2501 2335 2333 2532 2516 2291 2495 2832 3066 3153 3286 3441 3523 3624 3834 3916 3858 4047 4090 3753 3659 3591 3737 3642 3679 3645 3426 3279 3157 2986 2862 2649 2467 2385 2153 2242 2399 2211 2410 2530 2396 2182 2205 2364 2203 1960 1892 1904 1858 1845 1695 1644 1547 1409 1464 1437 1630 1774 1639 1494 1305 1239 1397 1492 1471 1700 1830 1992 2288 2236 2021 2023 1841 1967 2073 2232 2301 2405 2296 2282 2203 2168 2093 1947 1672 1492 1503 1479 1395 1288 998 981 838 677 847 927 983 746 710 502 438 401 502 659 673 615 535 547 640 693 712 758 811 850 824 697 791 870 946 1136 1060 929 944 983 1113 1114 1314 1201 1294 1508 1535 1440 1735 1845 2169 2309 2359 2484 2481 2345 2186 1967 1972 1751 1903 2082 1911 1600 1453 1371 1658 1838 1951 1731 1667 1834 1956 1995 1871 1680 1573 1496 1528 1544 1322 1533 1544 1788 2079 1736 1537 1420 1213 1409 1477 1784 1870 2017 2160 2279 2128 1924 1725 1717 1798
1686 1907 2063 2167 2113 2208 2404 2427 2710 2806 2854 2870 2821 2892 3059 3094 3120 2855 2706 2775 2745 2630 2380 2392 2048 1684 1529 1446 1517 1325 1033 1075 1072 861 659 990 1269 1544 1723 1933 2229 2133 1895 1751 1592 1392 1222 1037 1058 1264 980 1001 1193 1099 1149 1396 1617 1813 1935 2079 2163 2371 2590 2822 2724 2548 2422 2204 1986 1927 2013 2049 1927 1958 1816 1561 1539 1838 2015 2246 2514 2471 2417 2511 2327 2160 1984 1793 1843 2014 2063 2076 2247 2470 2851 3130 3207 3117 3060 2895 2777 2658 2536 2287 2110 1831 1998 2233 2299 2525 2673 2738 2774 2851 2753 2612 2389 2667 2833 2695 2447 2508 2712 2865 2881 3055 3298 3224 3378 3627 3629 3691 3957 3968 3709 3444 3247 3301 3287 3375 3410 3387 3269 3105 3006 2861 2790 2534 2286 2086 1907 2056 2052 2343 2342 2228 2092 1979 2067 2088 1972 1758 1704 1583 1551 1496 1479 1696 1708 1721 1723 1830 1630 1471 1338 1364 1632 1783 1887 1775 1740 1917 2178 2412 2407 2307 2188 1922 2112 2320 2276 2357 2326 2159 1994 1938 1937 1853 1755 1611 1518 1689 1728 1669 1417 1185 887 968 977 1150 1240 1209 797 557 386 601 744 635 539 545 657 637 705 631 660 585 598 615 656 771 992 1159 1069 1075 1434 1485 1276 1297 1077 1406 1401 1572 1426 1350 1336 1330 1405 1633 1894 1894 2073 2316 2271 2264 2454 2329 2103 1978 2046 2152 2245 1997 1726 1463 1535 1744 1759 2009 1858 1846 2063 2056 1868 1741 1737 1743 1635 1563 1484 1288 1495 1659 1873 2121 1955 1726 1500 1203 1496 1821 1953 2133 2205 2291 2168 1972 1846 1825 1870 1860
1664 1823 2066 2343 2353 2578 2758 2731 2810 2707 2582 2722 2647 2653 2810 3045 3054 2865 2524 2568 2521 2545 2396 2249 2117 1794 1441 1164 1338 1304 1089 887 797 744 848 949 1196 1489 1857 2160 2325 2092 1860 1714 1528 1366 1313 1021 1272 1476 1261 955 1163 1391 1309 1501 1712 2084 2340 2474 2320 2496 2706 2880 2781 2594 2475 2222 1970 2135 2332 2382 2309 2036 1800 1629 1536 1613 1873 2186 2491 2641 2551 2572 2363 2150 1974 1847 1766 1998 2150 2347 2518 2686 2904 3206 3287 3145 2965 2793 2676 2641 2501 2292 2049 1856 2039 2215 2465 2701 2843 2940 3023 3051 2922 2796 2739 2945 2950 2838 2718 2433 2543 2658 2711 2916 3120 3055 3310 3424 3347 3576 3861 3878 3612 3470 3295 3053 3071 3166 3087 3200 3163 3192 3054 2923 2706 2543 2403 2271 2129 1938 1980 2063 2170 2137 1988 1807 1870 1803 1707 1600 1624 1657 1670 1794 1743 1877 2090 2053 2085 1882 1716 1528 1313 1509 1679 1974 2085 2061 2041 2284 2424 2659 2514 2336 2115 2041 2150 2420 2511 2434 2263 2113 1992 1854 1813 1813 1748 1723 1784 1932 1835 1671 1529 1223 1040 1264 1354 1455 1428 1278 797 445 482 752 1076 970 924 984 896 803 966 948 778 630 674 691 812 924 1278 1341 1240 1147 1423 1701 1560 1265 1181 1544 1750 1863 1770 1628 1489 1530 1668 1483 1623 1722 1909 2036 2024 2172 2301 2467 2229 2195 2228 2309 2295 2138 1778 1448 1785 2049 2159 2163 1925 1979 2114 2072 1966 1965 1864 1753 1716 1570 1434 1293 1336 1656 1868 2094 1828 1634 1445 1221 1335 1526 1757 1893 2048 2174 2248 2089 2170 2035 2155 1878
1858 1844 2117 2435 2663 2648 2847 2826 2734 2529 2287 2463 2302 2487 2759 2911 3049 2890 2625 2352 2261 2241 2279 2158 2098 1880 1555 1213 1011 1071 998 869 746 872 1019 1092 1279 1530 1802 2103 2341 2023 1774 1601 1491 1267 1130 1135 1386 1550 1312 1152 1066 1315 1568 1469 1749 1980 2238 2473 2646 2644 2891 2972 2814 2585 2370 2157 2290 2365 2488 2495 2210 2061 1876 1701 1562 1825 1761 1963 2251 2631 2700 2441 2244 2081 1991 1877 1938 1898 2041 2254 2474 2688 2955 3222 3171 3040 2901 2752 2602 2461 2374 2267 2026 1895 2133 2272 2425 2636 2835 3038 3176 3305 3167 3037 3076 3260 3320 3108 2876 2593 2595 2780 2789 2700 2828 3159 3261 3236 3532 3918 3889 3707 3653 3590 3282 3092 2861 2885 2906 2851 2890 2893 2770 2691 2562 2383 2303 2311 2112 2012 1924 1769 1748 1855 1870 1680 1659 1779 1901 1937 1995 1912 1939 2204 2075 2289 2381 2286 2112 1909 1747 1566 1334 1460 1595 1613 1927 2206 2346 2440 2598 2627 2480 2376 2263 2074 2316 2404 2491 2554 2329 2249 2148 2090 2066 1966 1953 1947 1906 1782 1572 1435 1264 1127 1302 1525 1556 1415 1294 1262 1007 648 398 709 1104 1275 1309 1132 907 907 1084 917 787 660 715 788 896 1082 1003 1209 1440 1530 1615 1758 1593 1382 1293 1231 1492 1773 1944 1962 1874 1779 1655 1846 1961 1917 1723 2006 2122 2374 2451 2542 2397 2439 2343 2249 2086 1989 1706 1474 1670 1984 2187 2331 2118 2302 2230 2237 2098 2182 1944 1983 1829 1613 1517 1394 1405 1635 1737 1878 1648 1426 1286 1407 1539 1717 1823 1846 2127 2366 2292 2361 2336 2269 2197 2132
2096 2174 2229 2514 2761 2768 2728 2585 2615 2486 2211 2221 2154 2419 2668 2886 3049 2951 2698 2486 2397 2117 2082 2091 1952 1782 1490 1254 1133 918 762 867 1048 943 992 1176 1356 1508 1773 2054 2400 2146 1919 1673 1461 1246 1101 1417 1697 1696 1398 1268 1038 1275 1484 1725 1636 1916 2112 2362 2704 2939 3085 3054 2886 2637 2401 2284 2418 2601 2640 2483 2339 2201 1945 1736 1643 1937 2150 1906 2095 2432 2637 2469 2241 2248 2151 2083 2084 2181 2095 2174 2392 2643 2917 3210 3154 2992 2830 2727 2520 2344 2107 2080 2040 1841 2091 2262 2408 2579 2776 2922 3219 3388 3472 3371 3457 3521 3431 3255 3030 2814 2691 3036 3108 3022 2801 2933 3045 3234 3445 3758 3662 3452 3440 3369 3282 3122 2915 2676 2775 2594 2500 2516 2405 2279 2181 2112 2032 1993 1945 1959 2047 1884 1751 1751 1774 1902 1841 2055 2141 2016 2294 2158 2116 2471 2491 2422 2179 2106 2033 1863 1697 1556 1378 1473 1837 1681 1872 2049 2241 2482 2662 2715 2588 2425 2236 2232 2315 2411 2615 2490 2398 2305 2149 2181 2029 1871 1740 1684 1642 1672 1508 1331 1255 1300 1449 1545 1476 1477 1393 1300 987 688 489 863 1034 1167 1395 1185 975 956 1088 926 815 780 867 1003 972 1192 1292 1264 1313 1473 1639 1870 1781 1559 1646 1569 1472 1431 1703 1929 2151 2190 1961 2015 2255 2124 1789 1985 2167 2318 2513 2638 2440 2334 2194 2024 1883 1674 1581 1659 1639 1778 2027 2236 2472 2584 2582 2632 2416 2343 2321 2113 1905 1689 1616 1372 1490 1655 1846 2008 1773 1677 1420 1245 1503 1618 1674 1925 2022 2036 2151 2162 2065 2026 1926 1888
2116 2265 2459 2664 2829 2799 2615 2439 2365 2374 2151 1923 2188 2404 2561 2751 2851 2837 2761 2545 2340 2084 1878 1840 1802 1703 1491 1267 957 767 1047 1237 1329 1326 1290 1387 1513 1673 1829 2116 2478 2257 2030 1690 1413 1171 1385 1611 1918 1851 1669 1363 1099 1218 1453 1709 1900 1903 2105 2337 2634 2832 3150 3090 2948 2687 2581 2514 2596 2699 2498 2262 2181 2035 1887 1662 1814 2001 2306 2215 2133 2381 2696 2609 2443 2480 2150 2220 2300 2300 2315 2356 2519 2766 3024 3128 2988 2874 2786 2619 2440 2241 2255 2299 2240 2044 1971 2167 2344 2524 2627 2842 3060 3235 3446 3665 3668 3524 3460 3202 2934 2755 2721 3076 3358 3120 2928 2935 3208 3440 3584 3831 3671 3415 3288 3214 3068 2891 2803 2646 2558 2612 2472 2438 2425 2408 2351 2302 2121 2047 2017 1926 1831 1926 1869 1824 2061 2049 2042 2098 2355 2416 2606 2622 2516 2640 2517 2256 2009 1835 1830 1731 1595 1483 1338 1671 1827 1947 1829 1860 2082 2342 2482 2678 2627 2512 2354 2375 2549 2546 2492 2314 2140 2070 2015 1860 1830 1759 1584 1507 1413 1412 1397 1397 1577 1596 1598 1453 1237 1277 1175 1071 1051 628 496 775 1103 1342 1391 1151 1130 1118 1207 1001 886 849 761 906 1231 1288 1299 1441 1578 1759 1672 1754 1866 1819 1877 1705 1656 1717 1557 1870 2118 2389 2280 2214 2374 2102 1825 2114 2393 2627 2720 2592 2358 2241 2129 2022 1839 1691 1828 1952 1956 1764 1797 2056 2306 2562 2753 2710 2455 2102 1984 2057 1952 1677 1536 1415 1540 1810 1928 1869 1786 1795 1616 1315 1425 1553 1744 1746 1916 1985 2225 2267 2001 1868 1762 1666
1986 2120 2344 2537 2762 2784 2560 2266 2024 2064 2116 1857 1974 2224 2497 2625 2535 2692 2616 2410 2110 1965 1654 1525 1634 1581 1377 1195 989 814 1164 1360 1604 1775 1772 1629 1595 1865 2151 2308 2545 2165 1852 1587 1513 1300 1714 2017 2179 2048 1793 1482 1300 1212 1446 1662 2055 2303 2314 2473 2705 2941 2995 3089 2995 2903 2849 2748 2766 2649 2358 2161 2008 1907 1891 1698 1928 2309 2464 2403 2410 2448 2693 2876 2664 2424 2261 2460 2499 2438 2467 2482 2622 2764 3065 2904 2762 2692 2594 2480 2305 2424 2450 2453 2350 2070 1875 2110 2273 2432 2696 2889 3067 3261 3464 3646 3626 3517 3414 3299 3056 2802 2846 2951 3261 3330 3147 2973 3179 3429 3719 3633 3600 3473 3297 3232 3124 2983 2946 2903 2800 2885 2777 2635 2491 2350 2179 2111 1994 1984 1942 2124 2254 2297 2064 1786 2082 2276 2317 2354 2544 2787 2836 2836 2783 2653 2476 2281 2052 1880 1658 1570 1449 1369 1490 1833 2103 2141 2016 1837 2116 2418 2538 2622 2679 2566 2509 2405 2616 2515 2256 2118 1973 1876 1775 1745 1666 1572 1493 1458 1481 1510 1554 1668 1817 1664 1461 1202 1118 1044 915 729 716 540 541 906 1165 1438 1405 1174 1349 1368 1176 998 1031 938 982 832 889 896 959 1106 1335 1452 1418 1557 1521 1818 1894 1945 1732 2027 1759 1694 1931 2059 2315 2552 2462 2156 1983 2085 2452 2384 2573 2685 2388 2220 2091 2124 1947 1754 1975 2267 2277 2111 2025 1973 2233 2393 2742 2612 2473 2293 2054 1780 1742 1638 1513 1477 1711 1812 1729 1724 1601 1565 1470 1316 1534 1576 1598 1628 1795 1864 2127 2439 2298 2076 1832 1683
1918 2113 2192 2377 2698 2713 2507 2309 2118 1918 1951 1753 2016 2218 2440 2378 2320 2488 2506 2378 2116 1879 1520 1373 1407 1470 1404 1100 857 792 1121 1359 1576 1845 2018 1803 1589 1866 2130 2451 2688 2282 2064 1880 1461 1375 1605 1893 2187 2185 2002 1673 1409 1231 1484 1834 2040 2244 2455 2688 2804 2834 2701 2852 3085 3046 2973 2961 2752 2568 2384 2337 2248 2025 1886 1795 2050 2256 2578 2670 2690 2571 2678 2864 2561 2418 2549 2728 2683 2615 2612 2610 2779 2898 2732 2724 2614 2445 2421 2430 2453 2588 2598 2558 2405 2194 2047 1901 2113 2372 2668 2938 3115 3275 3323 3471 3617 3499 3379 3238 3066 2921 3024 3003 3284 3527 3352 3079 3263 3586 3631 3453 3179 3185 3090 2907 2713 2590 2601 2612 2570 2475 2475 2439 2270 2225 2006 1958 2127 2281 2377 2463 2471 2272 2089 1876 2163 2212 2390 2541 2680 2826 2710 2759 2735 2568 2346 2172 2002 1791 1563 1470 1574 1589 1872 2101 2175 2262 2173 1988 1956 2274 2522 2742 2818 2773 2667 2611 2661 2451 2219 2125 2124 2093 1975 1857 1786 1662 1588 1627 1586 1690 1820 1807 2027 1725 1465 1340 1146 1012 1039 948 812 708 498 882 1221 1516 1476 1441 1620 1412 1213 1137 1068 1018 1129 1090 981 1067 993 1038 1018 1081 1133 1301 1304 1455 1735 2046 2108 2228 1964 2073 1938 2000 2299 2581 2620 2394 2095 2069 2134 2327 2635 2808 2641 2565 2344 2418 2075 2015 1868 2190 2406 2480 2278 2082 2474 2676 2808 2885 2620 2286 2002 2012 1936 1778 1526 1747 2021 1836 1690 1600 1407 1333 1434 1399 1369 1571 1732 1851 2017 2209 2314 2348 2103 1953 1825 1753
2169 2097 2322 2494 2824 2656 2429 2271 2120 1936 1670 1720 1995 2168 2317 2119 2240 2177 2323 2348 2205 1918 1660 1416 1275 1275 1278 1100 805 896 1121 1315 1590 1841 2201 2120 1971 2139 2444 2704 2814 2661 2589 2296 1732 1616 1579 1796 2169 2394 2123 1845 1500 1259 1518 1649 1820 2044 2314 2481 2665 2645 2570 2805 2827 2998 3040 3121 2936 2790 2668 2506 2307 2141 1995 1831 1959 2265 2339 2442 2773 2945 2805 3033 2819 2695 2889 2969 2842 2845 2773 2783 2819 2654 2660 2688 2636 2672 2632 2631 2588 2686 2743 2665 2527 2335 2146 1919 2133 2341 2584 2849 3009 3091 3284 3474 3613 3507 3343 3223 3106 3031 3078 3078 3317 3480 3286 3154 3258 3547 3704 3417 3175 3003 2847 2684 2668 2567 2540 2449 2324 2240 2261 2151 2198 2060 2163 2229 2401 2489 2635 2525 2289 2102 1902 2017 2161 2347 2346 2468 2596 2788 2491 2415 2482 2404 2248 2050 1903 1765 1532 1649 1848 2027 2151 2203 2304 2384 2344 2221 2100 2078 2267 2564 2678 2791 2864 2816 2648 2402 2386 2423 2273 2326 2194 2034 1837 1649 1694 1820 1749 1794 2023 1942 2043 1839 1557 1304 1228 1344 1243 1031 972 685 417 806 1159 1594 1730 1816 1739 1504 1318 1374 1148 1144 1370 1263 1111 1269 1044 1318 1317 1286 1468 1415 1522 1459 1612 1769 1992 2291 2295 2394 2232 2152 2298 2615 2815 2522 2371 2315 2131 2436 2571 2676 2670 2720 2699 2517 2379 2247 2137 2025 2175 2460 2561 2330 2437 2801 2710 2582 2619 2579 2433 2308 2089 1744 1557 1765 2023 1875 1680 1437 1392 1558 1757 1781 1453 1624 1823 1995 2023 2090 2320 2386 2159 2080 1893 1926
2359 2333 2494 2664 2677 2529 2359 2124 2005 1871 1661 1629 1819 2067 2182 2002 1913 2000 2104 2137 2165 2014 1797 1618 1423 1239 1087 919 813 1082 1207 1265 1449 1766 2080 2324 2489 2552 2673 2977 3058 2815 2516 2476 2170 1987 1781 2029 2281 2477 2158 1900 1686 1557 1355 1422 1647 1961 2198 2377 2404 2382 2394 2600 2635 2815 2845 2925 3091 2935 2756 2655 2465 2212 2029 1868 1967 2000 2157 2302 2615 2904 3088 3155 3063 2976 3150 3118 3093 2967 2935 2894 2702 2802 2842 2813 2689 2773 2804 2775 2761 2840 2851 2747 2597 2423 2230 2017 2029 2351 2518 2609 2876 3088 3282 3483 3639 3507 3361 3291 3404 3438 3354 3287 3316 3482 3407 3384 3409 3662 3723 3510 3329 3142 3059 2905 2846 2851 2847 2627 2465 2387 2324 2156 2165 2233 2406 2494 2672 2644 2509 2391 2290 2167 1975 2156 2280 2453 2626 2651 2703 2555 2371 2174 2158 2131 2188 2111 1971 1795 1664 1919 1929 2298 2258 2289 2423 2516 2474 2406 2255 2270 2160 2342 2518 2761 3027 3005 2774 2615 2690 2637 2417 2285 2109 1942 1778 1908 1783 2059 1998 1843 2215 2241 2204 2025 1796 1593 1696 1484 1316 1140 805 433 502 995 1253 1485 1652 1654 1638 1661 1641 1524 1393 1269 1489 1467 1377 1336 1162 1260 1481 1595 1488 1806 1690 1591 1849 2115 2312 2413 2558 2596 2542 2415 2353 2668 2995 2802 2658 2365 2281 2227 2270 2482 2429 2661 2855 2753 2497 2407 2478 2315 2172 2400 2645 2624 2686 2907 2660 2404 2337 2349 2365 2145 2065 1887 1582 1827 1983 1689 1638 1375 1708 1848 2118 1898 1505 1556 1625 1799 1911 2125 2400 2641 2458 2118 1976 2022
2602 2653 2794 2749 2599 2383 2131 2051 1901 1710 1471 1629 1870 2010 2087 2034 1946 1744 1831 1868 1971 1956 1795 1527 1347 1154 958 900 1117 1293 1509 1636 1678 1949 2238 2429 2686 2854 3008 3105 3112 2830 2607 2408 2003 1746 1818 2093 2415 2590 2335 2069 1912 1849 1790 1725 1504 1732 1935 2165 2158 2154 2255 2418 2580 2790 2989 3073 3158 3025 2846 2703 2452 2205 2079 1945 2128 2327 2284 2439 2548 2661 2964 3326 3239 3162 3111 3032 2940 2940 2847 2757 2758 2966 2951 2954 2915 2926 2984 2920 2917 3009 2962 2828 2649 2474 2303 2095 2003 2193 2442 2681 2878 3070 3206 3373 3659 3693 3639 3595 3686 3755 3493 3501 3654 3747 3649 3366 3539 3811 3746 3608 3483 3355 3231 3105 3063 2998 2853 2684 2677 2546 2355 2217 2401 2449 2580 2761 2705 2584 2537 2402 2285 2163 2079 2182 2327 2552 2760 2846 2646 2451 2259 2203 2178 2016 1887 1910 1966 1714 1664 2039 1975 2116 2392 2377 2516 2663 2606 2490 2377 2448 2265 2392 2674 2725 2772 3069 3097 2786 2503 2361 2249 2030 1948 2007 2055 2069 1913 2203 2216 2099 2198 2408 2264 2162 2013 1810 1756 1686 1472 1049 745 455 605 905 1183 1277 1398 1433 1297 1489 1565 1671 1668 1590 1742 1749 1621 1389 1474 1351 1424 1714 1939 1981 2072 1789 1625 1835 2104 2300 2404 2595 2745 2715 2546 2828 3125 2858 2557 2517 2587 2559 2396 2427 2483 2594 2782 2989 2829 2731 2791 2527 2434 2363 2604 2919 3004 2989 2812 2457 2270 2076 2035 1869 1820 1737 1750 2028 2062 1878 1557 1521 1884 2118 2114 1842 1593 1915 1813 1746 1989 2160 2482 2675 2536 2459 2138 2290
2941 2886 2794 2636 2520 2331 2104 2034 1745 1642 1482 1562 1727 1922 1858 1875 1808 1764 1574 1696 1712 1679 1772 1602 1381 1165 933 969 1291 1518 1611 1754 2072 2316 2505 2605 2802 3001 3090 3138 3189 2985 2804 2506 2124 1815 1844 2149 2430 2758 2609 2420 2262 2176 1993 1765 1733 1615 1718 2019 2061 2268 2452 2600 2757 2933 3129 3257 3181 3014 2800 2619 2513 2451 2275 2025 2388 2582 2575 2741 2687 2652 2926 3270 3276 3226 3163 3099 2998 2911 2768 2812 2917 3101 3093 3061 3081 3114 3116 3096 3097 3079 2935 2762 2623 2408 2124 1986 1980 2152 2408 2562 2744 2965 3154 3361 3624 3666 3855 3950 3990 3845 3732 3715 3928 3725 3501 3562 3652 3779 3613 3568 3505 3468 3342 3174 3108 2981 2785 2751 2685 2554 2318 2350 2584 2793 2885 2818 2741 2641 2550 2450 2383 2259 2112 2220 2394 2566 2761 2859 2643 2463 2426 2387 2304 2178 2012 1838 1743 1730 1946 2142 2230 2076 2338 2519 2568 2707 2658 2547 2507 2569 2457 2307 2440 2626 2872 2976 3023 2941 2673 2454 2258 2237 2183 2173 2312 2169 2060 2328 2477 2357 2337 2212 2103 1856 1707 1529 1399 1334 1148 899 698 439 654 863 1003 928 949 1049 1127 1226 1279 1379 1557 1771 1981 2085 1868 1644 1817 1528 1364 1512 1801 1888 2059 2109 2008 2006 1950 2045 2342 2628 2859 3022 2987 2998 3183 2987 2685 2901 2905 2714 2598 2817 2842 2806 2773 2808 3003 3058 2894 2742 2608 2621 2681 2920 3117 2946 2724 2666 2488 2260 2002 2093 2073 1979 2038 2000 1912 1719 1512 1535 1747 2068 2142 1826 1745 2012 2248 2137 1954 2022 2326 2426 2505 2292 2218 2393
2687 2656 2545 2465 2366 2188 2047 1878 1664 1471 1425 1376 1595 1693 1639 1649 1619 1564 1558 1519 1433 1373 1461 1560 1439 1236 965 965 1402 1611 1737 1962 2190 2410 2555 2730 2825 2924 2905 3029 3056 2944 2752 2461 2091 1752 1967 2114 2407 2764 2721 2575 2465 2202 2017 1870 2070 1937 1757 1956 2181 2365 2533 2641 2685 2811 2961 3197 3206 3044 2873 2766 2537 2345 2240 2130 2208 2365 2660 2896 3010 3013 3131 3404 3349 3335 3262 3169 3081 2866 2915 2966 3060 3296 3215 3196 3240 3270 3227 3276 3248 3076 2872 2713 2539 2309 2114 1907 2038 2204 2417 2553 2735 2907 3149 3313 3272 3435 3707 3974 4050 4068 3966 3843 4060 3808 3742 3721 3672 3413 3222 3174 3198 3059 3122 2972 2855 2985 2761 2554 2481 2450 2257 2307 2444 2667 2915 2857 2814 2708 2597 2543 2403 2234 2347 2459 2551 2713 3009 2843 2702 2638 2572 2465 2335 2171 2012 1790 1649 1920 2121 2319 2399 2216 2310 2478 2532 2624 2582 2499 2565 2677 2625 2430 2457 2621 2745 2787 2982 2982 2752 2544 2525 2297 2478 2439 2537 2411 2393 2579 2427 2263 2155 1994 1953 2061 1885 1698 1530 1275 1124 919 759 428 580 750 779 884 1161 1321 1455 1435 1649 1734 1795 1776 1884 2101 2033 1963 1807 1554 1753 1530 1564 1652 1795 1925 2201 2426 2307 2110 2361 2597 2711 2758 3050 3141 3270 3360 3114 3121 3180 2981 2719 2947 3018 2844 2901 2824 2919 3044 3182 3098 2799 2777 3002 3225 3299 3121 3055 2819 2534 2302 2145 2499 2443 2239 2229 2020 1781 1613 1502 1614 1963 2131 2173 1975 1871 2134 2230 2333 2225 2324 2264 2458 2738 2459 2429 2514
2608 2493 2437 2279 2160 2061 1928 1691 1560 1441 1215 1240 1356 1357 1363 1410 1343 1323 1435 1355 1262 1219 1217 1155 1128 1069 850 1134 1436 1626 1777 2120 2263 2371 2416 2574 2687 2743 2776 2877 2918 2775 2584 2386 2131 1804 2060 2401 2528 2673 2821 2805 2451 2305 2207 2096 2229 2154 1952 1795 2052 2256 2440 2475 2596 2743 2855 3165 3291 3094 2888 2731 2542 2457 2468 2250 2390 2390 2411 2649 2958 3268 3471 3556 3472 3257 3110 3105 3028 3092 2985 3175 3194 3377 3345 3434 3393 3392 3385 3279 2952 2815 2655 2575 2511 2360 2079 2089 2163 2264 2452 2615 2774 2960 3173 3055 3065 3438 3597 3784 3797 4077 4202 4050 3997 3999 4039 4021 3809 3657 3477 3236 3019 2859 2730 2863 2790 2662 2722 2672 2457 2279 2333 2486 2696 2832 2982 2894 2838 2759 2669 2516 2333 2310 2614 2628 2802 2969 2983 2930 2793 2645 2440 2333 2231 2084 1904 1723 1707 1885 2053 2278 2444 2275 2238 2366 2436 2589 2530 2592 2676 2774 2691 2540 2597 2588 2610 2709 2839 2956 2928 2846 2663 2645 2751 2712 2677 2675 2694 2587 2309 2016 1969 1881 1741 1878 1923 1823 1663 1481 1262 1050 772 582 575 747 1036 1080 1210 1446 1653 1719 1949 2047 1923 2150 1976 2126 2289 2054 1788 1846 1825 1781 1880 1757 1875 2019 2275 2506 2492 2231 2272 2391 2488 2638 2771 2916 3119 3094 3235 3397 3269 2976 3067 3194 3062 3079 3106 2990 2967 2902 2978 3081 3095 2996 3246 3408 3470 3292 2983 2712 2518 2304 2350 2545 2733 2493 2225 1912 1755 1716 1483 1672 1793 1932 2186 2046 2003 1991 2191 2427 2556 2592 2597 2631 2598 2609 2669 2654
2553 2374 2400 2160 1976 1918 1748 1561 1293 1163 1117 1098 1114 1080 1084 1094 1032 1028 1092 1076 958 956 939 933 916 1099 968 1129 1495 1740 1854 1810 1892 2046 2199 2452 2441 2516 2616 2754 2829 2853 2615 2530 2342 1989 2001 2217 2475 2718 2928 2748 2658 2648 2545 2354 2423 2291 2084 1981 1852 2098 2269 2434 2607 2704 2938 3001 3002 3062 3013 2934 2701 2735 2552 2548 2543 2648 2740 2653 2813 3061 3384 3734 3538 3398 3275 3304 3287 3190 3145 3343 3319 3478 3491 3528 3536 3542 3404 3184 3001 2771 2536 2379 2210 2095 2031 1972 2289 2395 2514 2653 2807 3017 2966 2830 3053 3236 3359 3597 3746 3971 3967 3931 3688 3650 3886 3872 3686 3559 3527 3336 3308 3131 2835 2609 2553 2517 2483 2426 2344 2365 2594 2544 2753 2955 3155 3060 2933 2771 2606 2441 2328 2534 2596 2855 3032 2886 2780 2813 2727 2666 2558 2431 2213 1990 1776 1922 1888 1755 1998 2383 2465 2315 2263 2436 2606 2670 2570 2669 2756 2838 2696 2518 2697 2728 2775 2819 2839 2984 2767 2695 2721 2745 2542 2432 2397 2410 2498 2441 2297 2088 1849 1760 1563 1627 1679 1711 1715 1714 1419 1152 936 813 508 718 1078 1319 1258 1459 1684 2027 2091 2334 2163 2264 2100 2366 2370 2110 1929 2023 1968 2023 2208 1973 1888 2206 2431 2620 2455 2370 2522 2551 2593 2779 2675 2797 2882 2960 3034 3182 3282 3133 3227 3452 3350 3317 3131 3156 3292 3113 3147 3126 3070 3103 3247 3399 3537 3197 2998 2847 2764 2625 2448 2708 2814 2442 2140 1989 1973 1733 1520 1601 1815 2004 2235 2304 2184 2023 2222 2430 2707 2591 2499 2347 2297 2315 2589 2702
2403 2264 2322 2029 1843 1685 1612 1431 1237 1483 1446 1467 1451 1436 1349 1336 1394 1232 1247 1224 1234 1197 1251 1204 1238 1097 1040 1016 1181 1240 1370 1507 1668 1827 2198 2234 2309 2357 2515 2678 2799 2898 2823 2698 2396 2060 2051 2367 2575 2692 2863 2960 2986 2716 2514 2442 2551 2392 2298 2133 2071 1894 2136 2304 2551 2653 2715 2680 2802 3050 3270 3081 2900 2932 2731 2715 2841 3008 3023 2942 2896 3197 3420 3744 3611 3422 3350 3258 3476 3493 3385 3518 3539 3581 3581 3600 3634 3532 3388 3204 2949 2914 2741 2540 2409 2280 2010 2105 2357 2467 2511 2572 2671 2710 2671 2907 3167 3490 3459 3437 3484 3746 3791 3752 3587 3484 3811 3868 3758 3492 3332 3111 3016 2810 2782 2628 2755 2493 2600 2640 2449 2572 2603 2836 2886 3078 3239 3037 2891 2763 2636 2523 2402 2764 2838 2963 2987 2818 2680 2560 2623 2364 2335 2227 2015 1856 2089 2000 1889 1794 2135 2406 2545 2430 2321 2443 2530 2681 2604 2661 2861 2874 2692 2590 2792 2883 2885 2873 2931 2985 2759 2522 2480 2647 2404 2241 2093 2156 2231 2159 2096 1968 1825 1552 1557 1300 1417 1533 1543 1509 1489 1335 1012 658 667 1008 1181 1579 1453 1701 1690 1981 2309 2585 2526 2369 2213 2433 2666 2416 2211 2190 2125 2065 2328 2186 2129 2425 2619 2708 2569 2462 2657 2791 2771 2943 2917 2805 2823 2685 2775 2979 3272 3381 3437 3563 3576 3525 3422 3230 3499 3272 3258 3432 3268 3229 3218 3323 3561 3531 3185 3016 3025 2735 2641 2749 2903 2615 2356 2339 2015 1729 1540 1642 1795 1976 2115 2316 2466 2260 2236 2462 2728 2429 2258 2254 2075 2254 2476 2625
2406 2195 2040 1851 1743 1592 1446 1237 1551 1821 1913 1824 1882 1883 1768 1773 1652 1359 1369 1547 1624 1619 1644 1622 1437 1210 1143 1205 1180 1108 1185 1302 1569 1714 1796 1825 2139 2319 2446 2604 2740 2933 2895 2636 2433 2137 2124 2414 2523 2675 2946 3146 3032 2870 2690 2618 2662 2534 2389 2384 2295 2164 2065 2184 2269 2361 2481 2631 2869 2980 3180 3140 3037 3116 2899 2989 3183 3122 3251 3233 3148 3294 3546 3502 3245 3273 3068 3099 3248 3204 3275 3468 3237 3305 3251 3199 3258 3454 3267 2925 2689 2510 2652 2661 2522 2336 2092 2046 2164 2173 2181 2341 2481 2639 2778 3038 3312 3190 3114 3041 3374 3702 3542 3498 3439 3322 3545 3645 3980 3820 3541 3436 3306 3134 2945 2926 2811 2570 2741 2718 2513 2747 2985 2960 3203 3349 3239 3114 2948 2809 2643 2479 2403 2626 2808 3169 3000 2801 2539 2411 2337 2286 2023 1995 1848 2173 2235 2046 1951 1829 2129 2322 2499 2511 2482 2396 2465 2635 2699 2684 2787 2779 2667 2673 2761 2993 3002 2972 2848 2817 2708 2459 2294 2508 2459 2351 2075 1837 1943 1973 1867 1823 1704 1521 1237 1261 1191 1345 1347 1268 1193 1229 954 614 588 1091 1263 1392 1648 1819 2091 2172 2346 2311 2313 2496 2518 2473 2596 2666 2537 2523 2421 2272 2332 2360 2186 2415 2748 2742 2615 2514 2604 2730 2851 3032 2813 2763 2580 2459 2748 3017 3154 3297 3261 3223 3298 3595 3463 3467 3578 3382 3357 3610 3503 3397 3426 3312 3409 3494 3214 3060 2860 2784 2847 3063 3037 2712 2478 2309 2100 1806 1564 1660 1740 1849 1967 2136 2478 2595 2559 2560 2623 2469 2137 2003 1993 2130 2158 2393
2571 2436 2322 2240 2022 1821 1602 1336 1583 1928 2105 2148 2132 2094 2096 2051 1819 1550 1428 1640 1798 1859 1850 1726 1373 1143 1340 1614 1730 1699 1530 1363 1239 1460 1722 2049 2287 2390 2550 2647 2800 2980 3027 2829 2593 2312 2186 2404 2542 2704 2826 2910 3075 3016 2886 2772 2757 2644 2577 2521 2495 2351 2150 2428 2567 2651 2568 2527 2623 2750 2897 3103 3268 3321 3151 3318 3390 3447 3507 3428 3469 3532 3664 3524 3324 3059 3062 2829 3152 3024 3134 3254 3087 2957 3003 2891 3005 3249 3147 2934 2709 2633 2433 2331 2370 2237 2002 2176 2290 2270 2453 2508 2676 2770 2903 3105 3092 2942 2786 3158 3467 3606 3482 3183 3258 3175 3313 3585 3852 3919 3624 3353 3120 3028 3082 2840 2663 2560 2864 2857 2709 2749 2954 3196 3466 3347 3219 3075 2852 2751 2591 2735 2607 2569 2759 3004 2823 2617 2479 2473 2370 2261 2203 1921 2152 2308 2308 2180 2064 1956 2040 2296 2590 2642 2571 2563 2462 2492 2638 2763 2850 2834 2707 2753 2830 2903 2866 2859 2589 2628 2475 2470 2266 2314 2329 2145 1970 1681 1708 1715 1624 1633 1573 1465 1297 1087 1008 1040 1000 1073 967 945 896 585 641 1048 1454 1655 1866 1990 2160 2167 2034 2000 2062 2282 2589 2538 2665 2480 2438 2548 2753 2623 2748 2629 2546 2782 3061 2875 2731 2714 2683 2810 2935 2865 2735 2427 2459 2361 2634 2803 2869 2975 2975 2874 3202 3432 3384 3401 3434 3595 3616 3785 3721 3501 3669 3499 3411 3255 3107 3137 3094 2939 3033 3085 2902 2702 2322 2044 1962 1802 1604 1808 1829 2012 2280 2401 2649 2476 2336 2359 2399 2279 2249 1960 1853 1958 1988 2234
2747 2597 2374 2143 1883 1712 1530 1290 1615 1732 2054 2285 2438 2371 2231 2225 1903 1591 1508 1682 1868 2047 2089 1839 1473 1250 1349 1574 1764 2006 1838 1582 1386 1445 1751 1814 2026 2206 2335 2623 2764 2936 2905 2720 2501 2353 2398 2361 2299 2494 2655 2865 2884 3104 3065 3065 2911 2748 2611 2582 2616 2372 2317 2453 2736 2843 2707 2772 2689 2769 2889 3166 3502 3565 3507 3490 3398 3358 3393 3365 3543 3460 3611 3673 3346 3074 2802 2746 2971 2800 3124 3170 3019 2773 2767 2726 3021 3184 2956 2937 2860 2810 2663 2484 2369 2217 1937 2202 2504 2536 2611 2723 2840 2961 2916 2864 2798 2663 2883 3161 3330 3357 3348 3069 2984 3338 3551 3718 3959 3819 3676 3522 3300 2918 2768 2696 2703 2699 2648 2850 2941 2878 2996 3308 3561 3397 3203 3090 2944 2766 2711 2894 2813 2835 2715 2909 3026 2787 2706 2646 2478 2337 2144 1984 2269 2481 2379 2259 2120 1979 2074 2347 2597 2667 2662 2660 2538 2610 2613 2597 2804 2888 2842 2736 2793 2933 2803 2614 2570 2370 2325 2193 2133 2054 2028 1833 1720 1563 1486 1484 1385 1397 1424 1255 1076 919 857 919 803 680 632 604 589 518 707 1081 1301 1457 1605 1761 1806 1694 1591 1710 2056 2325 2565 2627 2482 2154 2103 2341 2705 2651 2746 2805 2700 2768 2808 2903 2796 2861 2750 2799 2685 2618 2669 2324 2318 2275 2606 2486 2716 2685 2671 2809 3103 3175 3152 3201 3181 3331 3619 3904 3873 3712 3832 3677 3522 3289 2973 2782 2849 2831 2812 2799 2718 2480 2445 2280 1948 1687 1750 1832 2118 2057 2337 2605 2573 2338 2105 2146 2204 2043 2126 1965 1704 1760 1982 2141
2673 2557 2291 1935 1753 1537 1351 1500 1702 1812 2066 2297 2519 2385 2444 2239 1890 1603 1603 1835 1838 2078 2137 1796 1474 1354 1224 1530 1707 1920 1951 1579 1473 1366 1565 1731 1760 1971 2258 2601 2787 2825 2975 2857 2600 2427 2480 2703 2526 2433 2458 2534 2688 2842 3035 3190 3075 2839 2714 2719 2691 2324 2504 2576 2791 2980 2875 2894 2857 3030 3037 3082 3383 3614 3605 3574 3426 3190 3183 3410 3368 3225 3345 3338 3321 3055 2778 2703 2759 2773 3121 3208 3177 2891 2536 2681 2901 2971 2701 2575 2595 2754 2662 2544 2300 2003 2127 2355 2636 2629 2687 2733 2666 2680 2698 2658 2620 2558 2749 2932 3033 3034 2976 2917 2956 3040 3305 3644 3892 3552 3303 3131 3042 2878 2866 3027 3081 2989 2718 2932 3151 3137 3251 3474 3506 3350 3176 3061 2900 2722 2850 3085 3175 3030 2829 2973 2947 2938 2585 2334 2365 2168 1963 2098 2342 2530 2397 2268 2139 2012 2016 2159 2378 2593 2781 2713 2583 2664 2841 2745 2689 2873 2925 2878 2885 2832 2612 2537 2413 2419 2431 2384 2320 2246 2150 2048 1839 1816 1579 1504 1422 1194 1145 1050 1132 1197 1249 1214 1080 993 957 993 808 543 656 1061 1109 1187 1399 1393 1355 1234 1566 2008 2255 2315 2449 2275 2202 1948 1983 2359 2564 2405 2562 2503 2335 2518 2535 2652 2864 2813 2770 2571 2443 2350 2508 2406 2041 2251 2385 2361 2461 2459 2368 2676 2984 2910 2964 2996 3063 3327 3517 3749 3957 3937 3892 3680 3419 3305 3022 2747 2532 2542 2546 2556 2531 2293 2149 1982 1919 1753 1840 2009 2252 2346 2488 2630 2320 2236 2046 1943 1978 1950 1956 1930 1765 1585 1717 1938
2774 2504 2177 2016 1727 1429 1438 1674 1854 1963 2122 2313 2604 2665 2634 2335 2015 1658 1795 1896 2013 2154 2247 1948 1726 1456 1251 1404 1622 1864 1989 1707 1417 1541 1537 1643 1862 2052 2179 2509 2671 2790 2944 2931 2718 2393 2550 2740 2770 2565 2688 2713 2695 2713 2894 3082 3232 3046 2890 2694 2457 2404 2474 2647 2908 3083 3092 2982 3015 3285 3306 3382 3480 3437 3514 3460 3368 3174 3235 3226 3212 3190 3241 2993 3067 3118 2891 2716 2514 2716 2851 2893 3057 2843 2572 2512 2703 2673 2657 2508 2258 2460 2345 2211 2108 1952 2169 2271 2417 2290 2560 2520 2479 2357 2349 2405 2447 2468 2516 2664 2740 2824 2748 2879 3170 3319 3560 3761 3931 3646 3589 3323 3294 3034 3117 3182 2996 2839 2902 2967 3146 3447 3616 3536 3369 3204 3122 2944 2883 2917 3158 3274 3304 3050 3066 2910 2718 2560 2508 2366 2178 2033 2136 2188 2420 2514 2377 2249 2131 2086 1961 2137 2318 2500 2648 2755 2663 2707 2902 2936 2823 2919 2940 2935 3029 2857 2738 2530 2556 2590 2567 2444 2368 2413 2248 2114 2066 1925 1811 1706 1554 1416 1297 1295 1270 1483 1542 1390 1359 1272 1239 1074 799 603 570 706 816 1095 1170 985 1095 1430 1771 1915 1983 2061 2250 2016 1904 1659 2003 2359 2319 2124 2455 2325 2030 2370 2246 2541 2603 2559 2610 2274 2164 2111 2290 2139 1950 2145 2147 2187 2248 2163 2485 2736 2703 2641 2730 2905 3154 3290 3531 3833 4067 4084 3893 3560 3245 2951 2926 2852 2658 2489 2307 2344 2409 2144 1919 1984 1777 2045 2003 2135 2444 2626 2712 2543 2392 2095 1995 1720 1796 1801 1812 1745 1743 1625 1567 1594
2706 2439 2170 1822 1628 1443 1609 1732 1939 2168 2247 2400 2725 2849 2594 2405 2028 1698 1826 2062 2210 2317 2452 2291 2061 1783 1443 1339 1609 1892 1977 1632 1484 1703 1899 1780 1758 1936 2171 2554 2628 2707 2916 2877 2617 2432 2695 2608 2826 2740 2691 2762 2782 2756 2873 3034 3214 3163 2851 2693 2581 2595 2795 2858 2911 3209 3332 3146 3075 3265 3581 3599 3493 3385 3376 3235 3180 3022 3053 3053 3114 3020 3023 3002 2773 2855 2820 2918 2604 2448 2623 2862 2827 2566 2463 2384 2435 2386 2425 2387 2308 2109 2091 1995 2205 2332 2167 2100 2076 2129 2169 2196 2180 2175 2275 2445 2396 2603 2560 2520 2516 2558 2771 3056 3160 3207 3471 3829 4125 4050 3890 3701 3478 3294 3411 3225 2966 3068 3157 3164 3402 3445 3714 3642 3465 3230 3209 3184 3175 3213 3469 3516 3343 3293 3048 2720 2555 2524 2374 2214 2191 2069 2237 2428 2505 2431 2312 2190 2226 2145 1999 2101 2191 2412 2639 2838 2746 2820 2921 3041 2944 3132 3185 3107 2959 2768 2626 2700 2654 2729 2589 2446 2437 2354 2169 2288 2199 2057 1997 1807 1667 1506 1290 1537 1445 1650 1808 1706 1525 1565 1485 1250 1027 692 585 552 736 843 822 1070 1398 1512 1584 1546 1718 1849 2019 1814 1534 1769 2157 2113 1978 1944 2319 2128 1884 2058 2199 2553 2303 2309 2378 2195 1892 1980 1997 1900 1816 1804 1863 1937 2054 2095 2251 2370 2380 2643 2766 2841 3089 3440 3702 3831 3827 3989 3835 3709 3343 3092 2722 2619 2451 2283 2282 2183 2087 2014 2107 2322 2131 2256 2213 2226 2484 2379 2380 2399 2244 2180 1931 1618 1559 1551 1622 1509 1476 1355 1416 1347
2650 2451 2140 1892 1599 1641 1889 2076 2142 2314 2474 2671 2907 2917 2700 2415 2021 1888 2124 2212 2406 2561 2668 2552 2243 1933 1439 1478 1697 1943 2042 1642 1698 2045 2234 2125 2152 2140 2199 2472 2601 2827 2928 3045 2806 2487 2744 2755 2766 2926 2786 2884 2893 2876 2843 3011 3181 3230 2939 2774 2668 2548 2833 3102 3182 3333 3511 3405 3266 3503 3698 3698 3469 3296 3229 3219 3142 3149 3033 2933 2976 2893 2704 2743 2813 2637 2611 2640 2504 2372 2527 2490 2582 2478 2344 2203 2179 2130 2072 2116 2022 2067 2207 2112 2401 2576 2627 2365 2360 2340 2240 2427 2461 2444 2427 2447 2681 2845 3072 3061 2980 2916 2724 2725 2850 3136 3370 3584 3882 4066 3978 3898 3729 3588 3409 3145 3026 3128 3282 3513 3748 3715 3751 3654 3495 3397 3428 3540 3506 3593 3647 3315 3118 2963 2957 2952 2669 2429 2247 2184 2149 2187 2476 2644 2517 2345 2230 2295 2291 2201 2050 2114 2404 2573 2620 2842 2943 3007 3199 3110 3097 3205 3442 3269 3002 2860 2786 2798 2857 2647 2596 2532 2571 2351 2324 2398 2328 2229 1966 1755 1526 1377 1624 1674 1753 1848 1959 1834 1794 1757 1594 1304 989 755 589 780 680 596 855 993 1072 1322 1284 1338 1521 1653 1790 1589 1409 1766 2076 1808 1597 1986 2091 1856 1772 1880 2234 2414 2105 1992 2196 2038 1780 1866 1782 1636 1855 2100 2172 2149 2292 2588 2499 2503 2368 2472 2564 2925 3174 3294 3434 3522 3758 3980 3617 3375 3173 2918 2710 2599 2565 2506 2502 2447 2473 2344 2403 2701 2504 2546 2433 2406 2410 2290 2108 2195 2109 1956 1854 1566 1528 1496 1495 1419 1463 1387 1469 1464
2468 2166 2016 1866 1600 1650 1967 2300 2412 2450 2557 2885 3147 2883 2567 2318 1947 2006 2304 2500 2657 2758 2631 2320 2174 1873 1415 1537 1793 2116 2144 1789 1741 2034 2430 2435 2453 2489 2422 2290 2533 2794 2964 3056 2780 2556 2810 2923 2700 2932 3020 3010 3025 3038 2954 3104 3184 3238 3054 2864 2747 2717 2754 3106 3296 3510 3700 3634 3497 3714 3756 3569 3520 3443 3442 3359 3309 3240 3170 2985 2804 2745 2587 2490 2490 2557 2492 2424 2486 2301 2405 2290 2172 2120 2146 2192 2208 2240 2279 2362 2367 2378 2370 2118 2079 2480 2705 2637 2563 2539 2482 2495 2650 2774 2609 2565 2596 2563 2748 3041 3341 3279 3159 2964 2945 3057 3314 3647 3860 4125 4016 3903 3715 3451 3262 3127 3251 3370 3364 3482 3753 3968 3947 3734 3664 3691 3645 3554 3428 3339 3364 3480 3260 2885 2594 2617 2673 2602 2367 2138 2405 2409 2459 2697 2552 2346 2427 2381 2380 2268 2133 2074 2225 2316 2417 2752 2889 2992 3021 2981 3000 3106 3293 3178 3027 3068 3024 2903 2712 2482 2590 2561 2572 2436 2454 2565 2332 2237 2144 1948 1661 1472 1871 2038 2081 2171 2095 1978 1916 1797 1665 1350 1058 796 623 937 948 651 793 877 936 995 998 1210 1407 1497 1623 1316 1486 1866 1837 1548 1795 1984 1717 1531 1874 2121 2270 2168 1932 1739 1896 1778 1637 1634 1564 1933 2261 2493 2630 2592 2537 2813 2868 2715 2756 2654 2824 2783 2891 3058 3205 3486 3758 4004 3681 3431 3193 3048 2912 2961 2920 2615 2738 2667 2854 2516 2646 2874 2644 2440 2206 2226 2202 2089 1903 1983 1971 1851 1574 1591 1639 1862 1805 1590 1707 1734 1793 1729
2554 2341 2214 2038 1777 1654 1984 2123 2318 2625 2896 3007 3203 2910 2524 2272 1970 2184 2316 2534 2756 2821 2604 2271 2055 1708 1389 1687 2012 2356 2347 1883 1718 2039 2341 2655 2706 2676 2655 2595 2575 2651 2861 3049 2940 2747 2708 2910 2873 2846 3077 3131 3152 3200 3078 3235 3309 3342 3110 2856 2944 2839 2815 2896 2998 3276 3571 3821 3762 3951 3813 3708 3736 3653 3589 3528 3473 3354 3204 3086 2920 2774 2744 2611 2503 2528 2603 2469 2300 2323 2212 2135 2304 2337 2302 2474 2509 2503 2559 2625 2676 2510 2320 2149 1994 2256 2359 2568 2780 2810 2762 2786 2825 2939 2864 2785 2815 2931 2940 2815 3176 3379 3381 2997 3043 3068 3218 3438 3710 4063 3963 3826 3686 3530 3333 3230 3465 3698 3737 3616 3771 4027 3905 3768 3629 3487 3450 3345 3303 3194 3131 3215 3211 2961 2733 2594 2367 2359 2249 2243 2457 2619 2682 2565 2476 2524 2548 2445 2522 2323 2128 2112 2129 2188 2367 2501 2678 2835 2753 2771 2732 2859 3055 2898 2853 2837 2763 2541 2346 2184 2243 2245 2215 2428 2526 2431 2310 2199 2081 1951 1701 1688 2013 2292 2289 2042 1974 1906 1654 1472 1360 1270 1122 783 634 1012 1112 887 776 765 698 697 771 955 1172 1381 1462 1149 1440 1731 1606 1387 1753 1631 1443 1705 2078 2111 2041 1859 1786 1671 1683 1486 1447 1608 1881 2092 2217 2434 2637 2889 2692 2972 3187 3051 3115 2929 3128 3046 3037 3071 3309 3571 3782 3928 3949 3711 3472 3353 3272 3300 2980 2797 3011 2944 3091 2819 2872 2818 2499 2294 2031 2033 1954 1816 1722 1682 1679 1625 1793 1764 1887 2110 1999 1748 2021 2015 2128 1927
2585 2440 2206 1879 1606 1784 2014 2375 2463 2760 3022 3268 3108 2775 2428 2228 2118 2319 2503 2657 2802 2571 2364 2182 1903 1554 1526 1958 2270 2497 2485 2063 1728 2056 2345 2472 2644 2904 2867 2779 2693 2747 2933 3139 2978 2997 2799 2853 3022 2917 2925 3180 3299 3326 3341 3346 3492 3476 3290 2969 3107 3036 3124 3199 3199 3327 3462 3705 4056 3955 3868 3869 3864 3772 3718 3652 3522 3386 3295 3161 3047 2931 2841 2646 2536 2330 2454 2456 2292 2175 2151 2253 2517 2541 2501 2522 2712 2842 2862 2775 2587 2422 2194 2014 2201 2281 2506 2695 2896 3029 3035 3026 3104 3236 3165 3175 3083 3101 3204 3071 2993 3284 3427 3128 3289 3341 3216 3506 3835 4027 4023 3884 3765 3557 3394 3437 3616 3880 4027 3830 3831 3983 3808 3704 3550 3375 3249 3114 3129 3075 2966 3032 2930 2785 2787 2744 2598 2371 2326 2530 2631 2789 2812 2620 2700 2731 2686 2588 2400 2259 2126 2202 2329 2247 2246 2351 2465 2571 2522 2554 2765 2834 2897 2725 2532 2456 2406 2297 2104 1940 1908 1968 1894 2188 2364 2269 2175 2140 2114 1948 1913 1970 2145 2229 2029 1957 1778 1697 1485 1205 968 934 901 650 622 1065 1369 1268 1113 1039 1017 851 845 736 929 1015 1233 1049 1380 1511 1433 1291 1677 1333 1520 1809 1821 1847 1745 1583 1571 1507 1431 1489 1788 2021 1945 1918 2071 2246 2475 2772 3006 3000 2959 2995 3272 3239 3472 3415 3446 3457 3561 3664 3781 3907 3885 3952 3751 3582 3548 3334 3127 3054 3303 3272 3258 3115 2912 2586 2385 2075 1905 1875 1827 1875 2038 1979 1893 1998 2142 1859 2190 2391 2093 1836 2144 2324 2410 2227
2625 2363 2155 1818 1701 1809 2022 2333 2639 2896 3172 3343 3086 2726 2633 2303 2278 2480 2618 2771 2672 2443 2082 1967 1860 1502 1621 2113 2310 2483 2575 2279 1911 1929 2157 2287 2511 2643 2895 3052 2969 2933 3069 3215 3239 2989 2805 2979 2957 3150 2982 3029 3308 3457 3510 3559 3640 3619 3282 3220 3274 3343 3412 3454 3456 3539 3696 3854 4072 4027 4014 3959 3910 3834 3761 3714 3572 3494 3440 3343 3193 2983 2840 2705 2587 2480 2368 2198 2294 2401 2422 2514 2645 2572 2710 2743 2955 3067 2902 2674 2502 2315 2229 2001 2313 2530 2712 2909 3061 3177 3228 3267 3279 3412 3556 3451 3393 3422 3478 3285 3160 3374 3531 3322 3560 3438 3499 3489 3712 3997 4062 3967 3756 3620 3530 3751 3759 4065 4060 3991 4036 3874 3734 3617 3534 3305 3084 2990 2901 2880 2802 2708 2750 2543 2477 2462 2514 2294 2470 2470 2688 3000 2911 2849 2940 2911 2660 2495 2361 2214 2130 2344 2417 2307 2355 2356 2312 2362 2465 2560 2626 2834 2789 2806 2660 2476 2403 2226 1999 1813 1768 1662 1770 1855 2096 2316 2287 2228 2110 2050 2066 2161 2195 1947 1908 1643 1513 1352 1331 991 873 831 647 575 707 980 1284 1430 1364 1375 1254 1179 1044 879 887 845 931 927 1083 1209 1191 1210 1410 1321 1588 1516 1532 1558 1436 1310 1247 1292 1473 1672 1906 2218 2318 2230 2122 2267 2354 2662 2816 2658 2569 2873 3210 3488 3485 3419 3341 3382 3735 3749 3695 3629 3574 3718 3973 3925 3803 3505 3381 3422 3563 3453 3247 3055 2718 2546 2136 1962 2301 2184 2171 2127 1987 2336 2334 2428 2220 2040 2369 2592 2274 1973 2203 2585 2655 2472
2551 2221 2114 1815 1631 1876 2146 2417 2718 3030 3207 3347 3193 2913 2796 2421 2486 2633 2733 2887 2620 2280 1998 1820 1585 1632 1938 2122 2347 2522 2652 2458 2132 2012 1986 2201 2370 2613 2836 3058 3244 3211 3281 3368 3363 3109 2891 3088 3066 3190 3255 3063 3169 3393 3628 3770 3847 3679 3481 3386 3440 3590 3711 3651 3718 3819 3914 3911 3912 4027 3954 3883 3825 3758 3753 3671 3597 3542 3450 3309 3176 3011 2904 2768 2603 2452 2209 2384 2362 2532 2585 2658 2807 2774 2916 3123 2998 2812 2749 2697 2477 2366 2180 2054 2341 2632 2855 2916 2865 2983 3046 3083 3105 3160 3447 3545 3708 3697 3596 3452 3368 3641 3712 3629 3788 3729 3903 3853 3721 3940 4057 4097 3989 3787 3839 3885 4124 4177 4150 4004 3913 3747 3617 3492 3384 3224 3164 3248 3131 2963 2965 2831 2607 2644 2685 2564 2450 2369 2676 2832 2920 2891 3148 3006 2753 2581 2583 2455 2364 2208 2256 2474 2485 2416 2434 2458 2467 2495 2477 2529 2724 2741 2496 2534 2645 2512 2538 2496 2356 2121 1901 1731 1555 1716 1951 2114 2288 2259 2171 2104 2221 2292 2045 1946 1673 1574 1409 1263 1118 1178 1168 1056 921 752 532 968 1030 1072 1329 1630 1467 1340 1092 1004 917 917 860 921 843 964 992 1090 1100 1324 1302 1350 1352 1380 1234 1271 1616 1764 1846 2056 2044 2285 2556 2517 2390 2413 2507 2455 2572 2307 2437 2684 2985 3273 3134 3052 2973 3203 3519 3392 3372 3319 3272 3555 3733 3919 3991 3780 3787 3725 3377 3126 2975 2729 2587 2255 2090 2261 2614 2497 2396 2260 2091 2400 2689 2610 2314 2191 2553 2804 2456 2188 2437 2633 2868 2510
2462 2214 1988 1713 1827 2019 2159 2410 2776 3049 3104 3232 3386 3264 2956 2539 2662 2840 2928 2982 2700 2351 2128 2058 1783 1591 1931 2175 2357 2562 2735 2657 2346 2082 2282 2055 2334 2508 2766 3013 3166 3315 3484 3563 3413 3280 3081 3104 3179 3331 3456 3298 3230 3497 3739 3879 3965 3787 3592 3514 3679 3854 3862 3727 3707 3700 3644 3607 3673 3872 3816 3719 3651 3590 3426 3396 3460 3303 3235 3155 3020 2868 2714 2562 2374 2224 2383 2562 2492 2548 2747 2929 3030 3071 3060 2916 2813 2611 2534 2587 2518 2414 2154 2107 2408 2680 2705 2701 2720 2773 2847 2848 2931 2991 3172 3431 3524 3782 3721 3611 3622 3705 3953 3891 3924 4024 4118 3966 3838 3902 4071 4128 4091 4002 4147 4153 4357 4238 4080 3935 3867 3766 3651 3446 3324 3367 3407 3547 3345 3254 3015 2704 2830 2952 2869 2812 2654 2400 2568 2601 2844 3158 3116 3030 2990 2668 2473 2356 2277 2212 2439 2693 2638 2636 2611 2527 2592 2687 2654 2564 2829 2701 2543 2284 2432 2213 2191 2334 2144 2059 2070 1841 1613 1648 1816 2046 1990 2020 2059 2195 2354 2242 2000 1838 1789 1661 1547 1465 1412 1512 1485 1342 1141 889 612 667 744 893 1076 1299 1633 1326 1156 1183 1120 1157 1248 1234 1022 933 1015 913 1011 960 1043 1122 1119 1155 1109 1386 1658 1845 2019 2227 2326 2309 2343 2343 2282 2259 2289 2076 2391 2052 2244 2552 2900 2920 2794 2735 2673 3009 3243 3079 3038 2919 3088 3243 3485 3796 4122 3903 3715 3395 3169 2827 2677 2573 2527 2350 2348 2612 2850 2712 2408 2164 2385 2546 2808 2756 2653 2430 2538 2872 2658 2585 2591 2855 2734 2481
